559024.0 182094.0 -97.61968994140625
559024.0 182114.0 -98.50239562988281
559024.0 182134.0 -99.38510131835938
559024.0 182154.0 -100.26780700683594
559024.0 182174.0 -101.1505126953125
559024.0 182194.0 -102.03321838378906
559024.0 182214.0 -102.91592407226562
559024.0 182234.0 -103.79862976074219
559024.0 182254.0 -104.68133544921875
559024.0 182274.0 -105.56404113769531
559024.0 182294.0 -106.44674682617188
559024.0 182314.0 -107.32945251464844
559024.0 182334.0 -108.212158203125
559024.0 182354.0 -109.09486389160156
559024.0 182374.0 -109.97756958007812
559024.0 182394.0 -110.86027526855469
559044.0 181714.0 -80.84288024902344
559044.0 181734.0 -81.7255859375
559044.0 181754.0 -82.60829162597656
559044.0 181774.0 -83.49099731445312
559044.0 181794.0 -84.37370300292969
559044.0 181814.0 -85.25640869140625
559044.0 181834.0 -86.13911437988281
559044.0 181854.0 -87.02182006835938
559044.0 181874.0 -87.90452575683594
559044.0 181894.0 -88.7872314453125
559044.0 181914.0 -89.66993713378906
559044.0 181934.0 -90.55264282226562
559044.0 181954.0 -91.43534851074219
559044.0 181974.0 -92.31805419921875
559044.0 181994.0 -93.20075988769531
559044.0 182014.0 -94.08346557617188
559044.0 182034.0 -94.96617126464844
559044.0 182054.0 -95.848876953125
559044.0 182074.0 -96.73158264160156
559044.0 182094.0 -97.61428833007812
559044.0 182114.0 -98.49699401855469
559044.0 182134.0 -99.37969970703125
559044.0 182154.0 -100.26240539550781
559044.0 182174.0 -101.14511108398438
559044.0 182194.0 -102.02781677246094
559044.0 182214.0 -102.9105224609375
559044.0 182234.0 -103.79322814941406
559044.0 182254.0 -104.67593383789062
559044.0 182274.0 -105.55863952636719
559044.0 182294.0 -106.44134521484375
559044.0 182314.0 -107.32405090332031
559044.0 182334.0 -108.20675659179688
559044.0 182354.0 -109.08946228027344
559044.0 182374.0 -109.97217559814453
559044.0 182394.0 -110.8548812866211
559064.0 181714.0 -80.83747863769531
559064.0 181734.0 -81.72018432617188
559064.0 181754.0 -82.60289001464844
559064.0 181774.0 -83.485595703125
559064.0 181794.0 -84.36830139160156
559064.0 181814.0 -85.25100708007812
559064.0 181834.0 -86.13371276855469
559064.0 181854.0 -87.01641845703125
559064.0 181874.0 -87.89912414550781
559064.0 181894.0 -88.78182983398438
559064.0 181914.0 -89.66453552246094
559064.0 181934.0 -90.5472412109375
559064.0 181954.0 -91.42994689941406
559064.0 181974.0 -92.31265258789062
559064.0 181994.0 -93.19535827636719
559064.0 182014.0 -94.07806396484375
559064.0 182034.0 -94.96076965332031
559064.0 182054.0 -95.84347534179688
559064.0 182074.0 -96.72618103027344
559064.0 182094.0 -97.60888671875
559064.0 182114.0 -98.49159240722656
559064.0 182134.0 -99.37429809570312
559064.0 182154.0 -100.25700378417969
559064.0 182174.0 -101.13970947265625
559064.0 182194.0 -102.02242279052734
559064.0 182214.0 -102.9051284790039
559064.0 182234.0 -103.78783416748047
559064.0 182254.0 -104.67053985595703
559064.0 182274.0 -105.5532455444336
559064.0 182294.0 -106.43595123291016
559064.0 182314.0 -107.31865692138672
559064.0 182334.0 -108.20136260986328
559064.0 182354.0 -109.08406829833984
559064.0 182374.0 -109.9667739868164
559064.0 182394.0 -110.84947967529297
559084.0 181714.0 -80.83207702636719
559084.0 181734.0 -81.71478271484375
559084.0 181754.0 -82.59748840332031
559084.0 181774.0 -83.48019409179688
559084.0 181794.0 -84.36289978027344
559084.0 181814.0 -85.24560546875
559084.0 181834.0 -86.12831115722656
559084.0 181854.0 -87.01101684570312
559084.0 181874.0 -87.89372253417969
559084.0 181894.0 -88.77642822265625
559084.0 181914.0 -89.65913391113281
559084.0 181934.0 -90.54183959960938
559084.0 181954.0 -91.42454528808594
559084.0 181974.0 -92.3072509765625
559084.0 181994.0 -93.18995666503906
559084.0 182014.0 -94.07266998291016
559084.0 182034.0 -94.95537567138672
559084.0 182054.0 -95.83808135986328
559084.0 182074.0 -96.72078704833984
559084.0 182094.0 -97.6034927368164
559084.0 182114.0 -98.48619842529297
559084.0 182134.0 -99.36890411376953
559084.0 182154.0 -100.2516098022461
559084.0 182174.0 -101.13431549072266
559084.0 182194.0 -102.01702117919922
559084.0 182214.0 -102.89972686767578
559084.0 182234.0 -103.78243255615234
559084.0 182254.0 -104.6651382446289
559084.0 182274.0 -105.54784393310547
559084.0 182294.0 -106.43054962158203
559084.0 182314.0 -107.3132553100586
559084.0 182334.0 -108.19596099853516
559084.0 182354.0 -109.07866668701172
559084.0 182374.0 -109.96137237548828
559084.0 182394.0 -110.84407806396484
559104.0 181714.0 -80.82667541503906
559104.0 181734.0 -81.70938110351562
559104.0 181754.0 -82.59208679199219
559104.0 181774.0 -83.47479248046875
559104.0 181794.0 -84.35749816894531
559104.0 181814.0 -85.2402114868164
559104.0 181834.0 -86.12291717529297
559104.0 181854.0 -87.00562286376953
559104.0 181874.0 -87.8883285522461
559104.0 181894.0 -88.77103424072266
559104.0 181914.0 -89.65373992919922
559104.0 181934.0 -90.53644561767578
559104.0 181954.0 -91.41915130615234
559104.0 181974.0 -92.3018569946289
559104.0 181994.0 -93.18456268310547
559104.0 182014.0 -94.06726837158203
559104.0 182034.0 -94.9499740600586
559104.0 182054.0 -95.83267974853516
559104.0 182074.0 -96.71538543701172
559104.0 182094.0 -97.59809112548828
559104.0 182114.0 -98.48079681396484
559104.0 182134.0 -99.3635025024414
559104.0 182154.0 -100.24620819091797
559104.0 182174.0 -101.12891387939453
559104.0 182194.0 -102.0116195678711
559104.0 182214.0 -102.89432525634766
559104.0 182234.0 -103.77703094482422
559104.0 182254.0 -104.65973663330078
559104.0 182274.0 -105.54244232177734
559104.0 182294.0 -106.4251480102539
559104.0 182314.0 -107.30785369873047
559104.0 182334.0 -108.19055938720703
559104.0 182354.0 -109.0732650756836
559104.0 182374.0 -109.95597076416016
559104.0 182394.0 -110.83867645263672
559124.0 181714.0 -80.82128143310547
559124.0 181734.0 -81.70398712158203
559124.0 181754.0 -82.5866928100586
559124.0 181774.0 -83.46939849853516
559124.0 181794.0 -84.35210418701172
559124.0 181814.0 -85.23480987548828
559124.0 181834.0 -86.11751556396484
559124.0 181854.0 -87.0002212524414
559124.0 181874.0 -87.88292694091797
559124.0 181894.0 -88.76563262939453
559124.0 181914.0 -89.6483383178711
559124.0 181934.0 -90.53104400634766
559124.0 181954.0 -91.41374969482422
559124.0 181974.0 -92.29645538330078
559124.0 181994.0 -93.17916107177734
559124.0 182014.0 -94.0618667602539
559124.0 182034.0 -94.94457244873047
559124.0 182054.0 -95.82727813720703
559124.0 182074.0 -96.7099838256836
559124.0 182094.0 -97.59268951416016
559124.0 182114.0 -98.47539520263672
559124.0 182134.0 -99.35810089111328
559124.0 182154.0 -100.24080657958984
559124.0 182174.0 -101.1235122680664
559124.0 182194.0 -102.00621795654297
559124.0 182214.0 -102.88892364501953
559124.0 182234.0 -103.7716293334961
559124.0 182254.0 -104.65433502197266
559124.0 182274.0 -105.53704071044922
559124.0 182294.0 -106.41974639892578
559124.0 182314.0 -107.30245208740234
559124.0 182334.0 -108.1851577758789
559124.0 182354.0 -109.06786346435547
559124.0 182374.0 -109.95056915283203
559124.0 182394.0 -110.8332748413086
559144.0 181714.0 -80.81587982177734
559144.0 181734.0 -81.6985855102539
559144.0 181754.0 -82.58129119873047
559144.0 181774.0 -83.46399688720703
559144.0 181794.0 -84.3467025756836
559144.0 181814.0 -85.22940826416016
559144.0 181834.0 -86.11211395263672
559144.0 181854.0 -86.99481964111328
559144.0 181874.0 -87.87752532958984
559144.0 181894.0 -88.7602310180664
559144.0 181914.0 -89.64293670654297
559144.0 181934.0 -90.52564239501953
559144.0 181954.0 -91.4083480834961
559144.0 181974.0 -92.29105377197266
559144.0 181994.0 -93.17375946044922
559144.0 182014.0 -94.05646514892578
559144.0 182034.0 -94.93917083740234
559144.0 182054.0 -95.8218765258789
559144.0 182074.0 -96.70458221435547
559144.0 182094.0 -97.58728790283203
559144.0 182114.0 -98.4699935913086
559144.0 182134.0 -99.35269927978516
559144.0 182154.0 -100.23540496826172
559144.0 182174.0 -101.11811065673828
559144.0 182194.0 -102.00081634521484
559144.0 182214.0 -102.8835220336914
559144.0 182234.0 -103.76622772216797
559144.0 182254.0 -104.64893341064453
559144.0 182274.0 -105.5316390991211
559144.0 182294.0 -106.41434478759766
559144.0 182314.0 -107.29705047607422
559144.0 182334.0 -108.17975616455078
559144.0 182354.0 -109.06246948242188
559144.0 182374.0 -109.94517517089844
559144.0 182394.0 -110.827880859375
559164.0 181714.0 -80.81047821044922
559164.0 181734.0 -81.69318389892578
559184.0 181714.0 -80.8050765991211
559164.0 181754.0 -82.57588958740234
559184.0 181734.0 -81.68778228759766
559164.0 181774.0 -83.4585952758789
559184.0 181754.0 -82.57048797607422
559164.0 181794.0 -84.34130096435547
559184.0 181774.0 -83.45319366455078
559164.0 181814.0 -85.22400665283203
559184.0 181794.0 -84.33589935302734
559164.0 181834.0 -86.1067123413086
559184.0 181814.0 -85.2186050415039
559164.0 181854.0 -86.98941802978516
559184.0 181834.0 -86.10131072998047
559164.0 181874.0 -87.87212371826172
559184.0 181854.0 -86.98401641845703
559164.0 181894.0 -88.75482940673828
559184.0 181874.0 -87.8667221069336
559164.0 181914.0 -89.63753509521484
559184.0 181894.0 -88.74942779541016
559164.0 181934.0 -90.5202407836914
559184.0 181914.0 -89.63213348388672
559164.0 181954.0 -91.40294647216797
559184.0 181934.0 -90.51483917236328
559164.0 181974.0 -92.28565216064453
559184.0 181954.0 -91.39754486083984
559164.0 181994.0 -93.1683578491211
559184.0 181974.0 -92.28025817871094
559164.0 182014.0 -94.05106353759766
559184.0 181994.0 -93.1629638671875
559164.0 182034.0 -94.93376922607422
559184.0 182014.0 -94.04566955566406
559164.0 182054.0 -95.81647491455078
559184.0 182034.0 -94.92837524414062
559164.0 182074.0 -96.69918060302734
559184.0 182054.0 -95.81108093261719
559164.0 182094.0 -97.5818862915039
559184.0 182074.0 -96.69378662109375
559164.0 182114.0 -98.46459197998047
559184.0 182094.0 -97.57649230957031
559164.0 182134.0 -99.34729766845703
559184.0 182114.0 -98.45919799804688
559164.0 182154.0 -100.2300033569336
559184.0 182134.0 -99.34190368652344
559164.0 182174.0 -101.11271667480469
559184.0 182154.0 -100.224609375
559164.0 182194.0 -101.99542236328125
559184.0 182174.0 -101.10731506347656
559164.0 182214.0 -102.87812805175781
559184.0 182194.0 -101.99002075195312
559164.0 182234.0 -103.76083374023438
559184.0 182214.0 -102.87272644042969
559164.0 182254.0 -104.64353942871094
559184.0 182234.0 -103.75543212890625
559164.0 182274.0 -105.5262451171875
559184.0 182254.0 -104.63813781738281
559164.0 182294.0 -106.40895080566406
559184.0 182274.0 -105.52084350585938
559164.0 182314.0 -107.29165649414062
559184.0 182294.0 -106.40354919433594
559164.0 182334.0 -108.17436218261719
559184.0 182314.0 -107.2862548828125
559164.0 182354.0 -109.05706787109375
559184.0 182334.0 -108.16896057128906
559164.0 182374.0 -109.93977355957031
559184.0 182354.0 -109.05166625976562
559164.0 182394.0 -110.82247924804688
559184.0 182374.0 -109.93437194824219
559184.0 182394.0 -110.81707763671875
559204.0 181714.0 -80.79967498779297
559204.0 181734.0 -81.68238067626953
559204.0 181754.0 -82.5650863647461
559204.0 181774.0 -83.44779205322266
559204.0 181794.0 -84.33050537109375
559204.0 181814.0 -85.21321105957031
559204.0 181834.0 -86.09591674804688
559204.0 181854.0 -86.97862243652344
559204.0 181874.0 -87.861328125
559204.0 181894.0 -88.74403381347656
559204.0 181914.0 -89.62673950195312
559204.0 181934.0 -90.50944519042969
559204.0 181954.0 -91.39215087890625
559204.0 181974.0 -92.27485656738281
559204.0 181994.0 -93.15756225585938
559204.0 182014.0 -94.04026794433594
559204.0 182034.0 -94.9229736328125
559204.0 182054.0 -95.80567932128906
559204.0 182074.0 -96.68838500976562
559204.0 182094.0 -97.57109069824219
559204.0 182114.0 -98.45379638671875
559204.0 182134.0 -99.33650207519531
559204.0 182154.0 -100.21920776367188
559204.0 182174.0 -101.10191345214844
559204.0 182194.0 -101.984619140625
559204.0 182214.0 -102.86732482910156
559204.0 182234.0 -103.75003051757812
559204.0 182254.0 -104.63273620605469
559204.0 182274.0 -105.51544189453125
559204.0 182294.0 -106.39814758300781
559204.0 182314.0 -107.28085327148438
559204.0 182334.0 -108.16355895996094
559204.0 182354.0 -109.0462646484375
559204.0 182374.0 -109.92897033691406
559204.0 182394.0 -110.81167602539062
559224.0 181714.0 -80.79428100585938
559224.0 181734.0 -81.67698669433594
559224.0 181754.0 -82.5596923828125
559224.0 181774.0 -83.44239807128906
559224.0 181794.0 -84.32510375976562
559224.0 181814.0 -85.20780944824219
559224.0 181834.0 -86.09051513671875
559224.0 181854.0 -86.97322082519531
559224.0 181874.0 -87.85592651367188
559224.0 181894.0 -88.73863220214844
559224.0 181914.0 -89.621337890625
559224.0 181934.0 -90.50404357910156
559224.0 181954.0 -91.38674926757812
559224.0 181974.0 -92.26945495605469
559224.0 181994.0 -93.15216064453125
559224.0 182014.0 -94.03486633300781
559224.0 182034.0 -94.91757202148438
559224.0 182054.0 -95.80027770996094
559224.0 182074.0 -96.6829833984375
559224.0 182094.0 -97.56568908691406
559224.0 182114.0 -98.44839477539062
559224.0 182134.0 -99.33110046386719
559224.0 182154.0 -100.21380615234375
559224.0 182174.0 -101.09651184082031
559224.0 182194.0 -101.97921752929688
559224.0 182214.0 -102.86192321777344
559224.0 182234.0 -103.74462890625
559224.0 182254.0 -104.62733459472656
559224.0 182274.0 -105.51004028320312
559224.0 182294.0 -106.39274597167969
559224.0 182314.0 -107.27545166015625
559224.0 182334.0 -108.15815734863281
559224.0 182354.0 -109.04086303710938
559224.0 182374.0 -109.92356872558594
559224.0 182394.0 -110.8062744140625
559244.0 181714.0 -80.78887939453125
559244.0 181734.0 -81.67158508300781
559244.0 181754.0 -82.55429077148438
559244.0 181774.0 -83.43699645996094
559244.0 181794.0 -84.3197021484375
559244.0 181814.0 -85.20240783691406
559244.0 181834.0 -86.08511352539062
559244.0 181854.0 -86.96781921386719
559244.0 181874.0 -87.85052490234375
559244.0 181894.0 -88.73323059082031
559244.0 181914.0 -89.61593627929688
559244.0 181934.0 -90.49864196777344
559244.0 181954.0 -91.38134765625
559244.0 181974.0 -92.26405334472656
559244.0 181994.0 -93.14675903320312
559244.0 182014.0 -94.02946472167969
559244.0 182034.0 -94.91217041015625
559244.0 182054.0 -95.79487609863281
559244.0 182074.0 -96.67758178710938
559244.0 182094.0 -97.56028747558594
559244.0 182114.0 -98.4429931640625
559244.0 182134.0 -99.32569885253906
559244.0 182154.0 -100.20840454101562
559244.0 182174.0 -101.09111022949219
559244.0 182194.0 -101.97381591796875
559244.0 182214.0 -102.85652160644531
559244.0 182234.0 -103.73922729492188
559244.0 182254.0 -104.62193298339844
559244.0 182274.0 -105.504638671875
559244.0 182294.0 -106.38734436035156
559244.0 182314.0 -107.27005004882812
559244.0 182334.0 -108.15276336669922
559244.0 182354.0 -109.03546905517578
559244.0 182374.0 -109.91817474365234
559244.0 182394.0 -110.8008804321289
559264.0 181714.0 -80.78347778320312
559264.0 181734.0 -81.66618347167969
559264.0 181754.0 -82.54888916015625
559264.0 181774.0 -83.43159484863281
559264.0 181794.0 -84.31430053710938
559264.0 181814.0 -85.19700622558594
559264.0 181834.0 -86.0797119140625
559264.0 181854.0 -86.96241760253906
559264.0 181874.0 -87.84512329101562
559264.0 181894.0 -88.72782897949219
559264.0 181914.0 -89.61053466796875
559264.0 181934.0 -90.49324035644531
559264.0 181954.0 -91.37594604492188
559264.0 181974.0 -92.25865173339844
559264.0 181994.0 -93.141357421875
559264.0 182014.0 -94.02406311035156
559264.0 182034.0 -94.90676879882812
559264.0 182054.0 -95.78947448730469
559264.0 182074.0 -96.67218017578125
559264.0 182094.0 -97.55488586425781
559264.0 182114.0 -98.43759155273438
559264.0 182134.0 -99.32030487060547
559264.0 182154.0 -100.20301055908203
559264.0 182174.0 -101.0857162475586
559264.0 182194.0 -101.96842193603516
559264.0 182214.0 -102.85112762451172
559264.0 182234.0 -103.73383331298828
559264.0 182254.0 -104.61653900146484
559264.0 182274.0 -105.4992446899414
559264.0 182294.0 -106.38195037841797
559264.0 182314.0 -107.26465606689453
559264.0 182334.0 -108.1473617553711
559264.0 182354.0 -109.03006744384766
559264.0 182374.0 -109.91277313232422
559264.0 182394.0 -110.79547882080078
557384.0 179694.0 3.32671856880188
557404.0 179694.0 2.117795944213867
557384.0 179714.0 3.96484375
557404.0 179714.0 2.9387500286102295
557384.0 179734.0 4.399485111236572
557404.0 179734.0 3.630936861038208
557424.0 179734.0 2.5768749713897705
557424.0 179754.0 3.4827725887298584
557424.0 179774.0 4.436543941497803
557444.0 179774.0 3.4038050174713135
557444.0 179794.0 4.477143287658691
557464.0 179794.0 3.6346466541290283
557484.0 179794.0 3.0056357383728027
557484.0 179814.0 4.146467208862305
557504.0 179814.0 3.2255513668060303
557504.0 179834.0 4.715683937072754
557524.0 179834.0 2.877134084701538
557544.0 179834.0 -0.634107232093811
557564.0 179834.0 -5.006322860717773
557584.0 179834.0 -7.0370402336120605
557584.0 179854.0 -3.5488884449005127
557604.0 179854.0 -3.3029608726501465
557624.0 179854.0 -2.475533962249756
557624.0 179874.0 0.4253382980823517
557644.0 179874.0 1.0089799165725708
557384.0 179674.0 2.1131293773651123
557384.0 179654.0 2.1756417751312256
557384.0 179634.0 1.3849906921386719
557384.0 179614.0 0.5358325242996216
557384.0 179594.0 -0.31332552433013916
557384.0 179574.0 -1.1624835729599
557384.0 179554.0 -2.01164174079895
557384.0 179534.0 -2.7287189960479736
557384.0 179514.0 -3.5005557537078857
557384.0 179494.0 -4.051303386688232
557664.0 179874.0 0.6424920558929443
557664.0 179894.0 2.750781297683716
557684.0 179894.0 2.171999931335449
557724.0 179894.0 0.9025612473487854
557744.0 179894.0 -2.016676902770996
557764.0 179894.0 -0.6594730615615845
557784.0 179894.0 0.6740159392356873
557784.0 179774.0 2.508500337600708
557804.0 179754.0 9.605049133300781
557804.0 179774.0 5.814000129699707
557804.0 179894.0 0.9715060591697693
557804.0 179734.0 12.59722900390625
557824.0 179734.0 12.20068645477295
557804.0 179794.0 2.2752573490142822
557824.0 179794.0 3.128999948501587
557824.0 179894.0 0.28440868854522705
557844.0 179734.0 10.935279846191406
557844.0 179794.0 4.066718578338623
557844.0 179894.0 -0.2906881272792816
557864.0 179734.0 8.48027229309082
557864.0 179754.0 11.18882942199707
557844.0 179814.0 1.2996875047683716
557864.0 179814.0 1.9307812452316284
557844.0 179854.0 -2.892063617706299
557864.0 179854.0 -1.439056634902954
557864.0 179874.0 -2.703415632247925
557884.0 179754.0 9.180280685424805
557904.0 179754.0 6.803005218505859
557924.0 179754.0 9.976189613342285
557944.0 179734.0 6.381269454956055
557964.0 179734.0 7.940624713897705
558004.0 179734.0 9.395781517028809
558024.0 179734.0 10.202812194824219
558044.0 179734.0 10.413000106811523
558064.0 179734.0 9.699999809265137
558084.0 179734.0 8.871562957763672
558104.0 179734.0 8.8685941696167
558124.0 179734.0 9.933905601501465
558124.0 179714.0 6.708593845367432
558144.0 179674.0 4.604736328125
558164.0 179654.0 1.979660987854004
558184.0 179654.0 2.268122673034668
558204.0 179654.0 3.3386242389678955
558224.0 179654.0 4.792148590087891
558244.0 179654.0 5.495928764343262
558224.0 179634.0 4.2575531005859375
557324.0 182414.0 -112.10928344726562
557344.0 182414.0 -112.1046371459961
557364.0 182414.0 -112.09999084472656
557384.0 182414.0 -112.09535217285156
557404.0 182414.0 -112.09070587158203
557424.0 182414.0 -112.0860595703125
557444.0 182414.0 -112.08141326904297
557464.0 182414.0 -112.07676696777344
557484.0 182414.0 -112.07212829589844
557504.0 182414.0 -112.0674819946289
557524.0 182414.0 -112.06283569335938
557544.0 182414.0 -112.05818939208984
557564.0 182414.0 -112.05354309082031
557584.0 182414.0 -112.04890441894531
557604.0 182414.0 -112.04425811767578
557624.0 182414.0 -112.03961181640625
557644.0 182414.0 -112.03496551513672
557664.0 182414.0 -112.03031921386719
557684.0 182414.0 -112.02568054199219
557704.0 182414.0 -112.02103424072266
557724.0 182414.0 -112.01638793945312
557744.0 182414.0 -112.0117416381836
557764.0 182414.0 -112.00709533691406
557784.0 182414.0 -112.00245666503906
557804.0 182414.0 -111.99781036376953
557824.0 182414.0 -111.9931640625
557844.0 182414.0 -111.98851776123047
557864.0 182414.0 -111.98387145996094
557884.0 182414.0 -111.97923278808594
557904.0 182414.0 -111.9745864868164
557924.0 182414.0 -111.96994018554688
557944.0 182414.0 -111.96529388427734
557964.0 182414.0 -111.96064758300781
557984.0 182414.0 -111.95600891113281
558004.0 182414.0 -111.95136260986328
558024.0 182414.0 -111.94671630859375
558044.0 182414.0 -111.94207000732422
558064.0 182414.0 -111.93742370605469
558084.0 182414.0 -111.93278503417969
558104.0 182414.0 -111.92813873291016
558124.0 182414.0 -111.92349243164062
558144.0 182414.0 -111.9188461303711
558164.0 182414.0 -111.91419982910156
558184.0 182414.0 -111.90956115722656
558204.0 182414.0 -111.90491485595703
558224.0 182414.0 -111.9002685546875
558244.0 182414.0 -111.89562225341797
558264.0 179634.0 5.84916877746582
558284.0 179634.0 6.517181873321533
558304.0 179634.0 7.185194969177246
558324.0 179634.0 7.853208065032959
558344.0 179634.0 8.431861877441406
558364.0 179614.0 8.398937225341797
558384.0 179614.0 8.671489715576172
558404.0 179614.0 8.944042205810547
558424.0 179594.0 8.768394470214844
558444.0 179594.0 8.374430656433105
558464.0 179594.0 7.916035175323486
558484.0 179594.0 7.457640171051025
558504.0 179574.0 7.432827949523926
558544.0 179594.0 7.324854850769043
558544.0 179574.0 7.33876371383667
558564.0 179594.0 7.264464378356934
558584.0 179594.0 7.498965263366699
558604.0 179594.0 7.883087158203125
558624.0 179594.0 8.269510269165039
558644.0 179594.0 11.000679969787598
558644.0 179614.0 13.3756685256958
558664.0 179614.0 15.087370872497559
558684.0 179614.0 16.197900772094727
558704.0 179614.0 17.521575927734375
558704.0 179634.0 17.085987091064453
558724.0 179634.0 16.615436553955078
558744.0 179634.0 15.544374465942383
558764.0 179634.0 14.437164306640625
558784.0 179634.0 14.764537811279297
558784.0 179654.0 12.943754196166992
558804.0 179654.0 13.194548606872559
558804.0 179674.0 11.45034408569336
558824.0 179674.0 12.61439323425293
558844.0 179674.0 13.910489082336426
558864.0 179654.0 16.488000869750977
558884.0 179654.0 16.08799934387207
558904.0 179654.0 15.614158630371094
558904.0 179814.0 6.361875057220459
558924.0 179654.0 15.123944282531738
558924.0 179814.0 6.400000095367432
558944.0 179654.0 14.517017364501953
558944.0 179674.0 14.723434448242188
558944.0 179814.0 6.400000095367432
558964.0 179674.0 14.415395736694336
558984.0 179674.0 13.528951644897461
558984.0 179694.0 11.632919311523438
559004.0 179694.0 12.520198822021484
559024.0 179694.0 14.1498441696167
559024.0 179774.0 11.5767183303833
559024.0 179794.0 6.656562328338623
559044.0 179694.0 13.895136833190918
559044.0 179774.0 10.84593677520752
559044.0 179794.0 6.5
559064.0 179694.0 13.616600036621094
559064.0 179774.0 10.423906326293945
559064.0 179794.0 6.5
559064.0 179814.0 6.5
559084.0 179694.0 13.338064193725586
559084.0 179714.0 12.411486625671387
559084.0 179774.0 9.7837495803833
559084.0 179814.0 6.5
559104.0 179714.0 12.132949829101562
559104.0 179774.0 9.273749351501465
559104.0 179814.0 6.5
559124.0 179714.0 11.854413986206055
559124.0 179734.0 10.927836418151855
559124.0 179754.0 10.001258850097656
559124.0 179774.0 8.812999725341797
559124.0 179794.0 6.561874866485596
559144.0 179734.0 10.72675895690918
559144.0 179754.0 9.910752296447754
559144.0 179774.0 8.798999786376953
559144.0 179794.0 6.661874771118164
559144.0 179814.0 6.551875114440918
559164.0 179734.0 10.77115535736084
559164.0 179754.0 9.649883270263672
559184.0 179734.0 10.83488941192627
559164.0 179774.0 8.66100025177002
559184.0 179754.0 10.149266242980957
559164.0 179814.0 6.651875019073486
559184.0 179814.0 6.739843845367432
559204.0 179814.0 6.827812671661377
559224.0 179814.0 6.927812576293945
559224.0 179834.0 6.4120001792907715
559244.0 179834.0 6.349999904632568
559244.0 179854.0 6.290459632873535
559244.0 179874.0 5.008092403411865
559244.0 179894.0 3.6438992023468018
559244.0 179914.0 2.528250217437744
559264.0 179894.0 2.902845859527588
559284.0 179874.0 3.644869327545166
559304.0 179874.0 3.1498615741729736
559304.0 179894.0 4.671745777130127
559304.0 179914.0 5.640999794006348
559304.0 179934.0 7.327000141143799
559304.0 179954.0 9.162500381469727
559304.0 179974.0 11.010000228881836
559304.0 179994.0 12.62600040435791
559304.0 180014.0 13.044530868530273
559304.0 180034.0 12.196000099182129
559304.0 180054.0 11.204000473022461
559304.0 180074.0 11.242500305175781
559304.0 180094.0 10.770625114440918
559304.0 180114.0 9.734844207763672
559304.0 180134.0 8.78499984741211
559304.0 180154.0 7.910999774932861
559304.0 180174.0 7.034999847412109
559304.0 180194.0 6.385000228881836
559304.0 180214.0 5.8630900382995605
559304.0 180234.0 4.992077827453613
559304.0 180254.0 3.811178684234619
559304.0 180274.0 2.630279541015625
559304.0 180294.0 1.4328829050064087
559304.0 180314.0 0.2601960599422455
559304.0 180334.0 -0.7804614901542664
558264.0 182414.0 -111.89097595214844
558284.0 182414.0 -111.88633728027344
558304.0 182414.0 -111.8816909790039
558324.0 182414.0 -111.87704467773438
558344.0 182414.0 -111.92658233642578
558364.0 182414.0 -111.92118835449219
558384.0 182414.0 -111.91578674316406
558404.0 182414.0 -111.91038513183594
558424.0 182414.0 -111.90498352050781
558444.0 182414.0 -111.89958190917969
558464.0 182414.0 -111.8941879272461
558484.0 182414.0 -111.88878631591797
558504.0 182414.0 -111.88338470458984
558524.0 182414.0 -111.87798309326172
558544.0 182414.0 -111.8725814819336
558564.0 182414.0 -111.8671875
558584.0 182414.0 -111.86178588867188
558604.0 182414.0 -111.85638427734375
558624.0 182414.0 -111.85098266601562
558644.0 182414.0 -111.8455810546875
558664.0 182414.0 -111.8401870727539
558684.0 182414.0 -111.83478546142578
558704.0 182414.0 -111.82938385009766
558724.0 182414.0 -111.82398223876953
558744.0 182414.0 -111.8185806274414
558764.0 182414.0 -111.81318664550781
558784.0 182414.0 -111.80778503417969
558804.0 182414.0 -111.80238342285156
558824.0 182414.0 -111.79698181152344
558844.0 182414.0 -111.79158020019531
559284.0 181054.0 -50.797908782958984
559284.0 181074.0 -51.72926712036133
559284.0 181094.0 -52.66062545776367
559284.0 181114.0 -53.591983795166016
559284.0 181134.0 -54.52334213256836
559284.0 181154.0 -55.4547004699707
559284.0 181174.0 -56.38605880737305
559284.0 181194.0 -57.317420959472656
559284.0 181214.0 -58.248779296875
559284.0 181234.0 -59.180137634277344
559284.0 181254.0 -60.11149597167969
559284.0 181274.0 -61.04285430908203
559284.0 181294.0 -61.974212646484375
559284.0 181314.0 -62.90557098388672
559284.0 181334.0 -63.83692932128906
559284.0 181354.0 -64.7682876586914
559284.0 181374.0 -65.69964599609375
559284.0 181394.0 -66.6310043334961
559284.0 181414.0 -67.55390930175781
559284.0 181434.0 -68.43453979492188
559284.0 181454.0 -69.3151626586914
559284.0 181474.0 -70.19579315185547
559284.0 181494.0 -71.07642364501953
559284.0 181514.0 -71.9570541381836
559284.0 181534.0 -72.83767700195312
559284.0 181554.0 -73.71830749511719
559284.0 181574.0 -74.59913635253906
559284.0 181594.0 -75.48184204101562
559284.0 181614.0 -76.36454772949219
559284.0 181634.0 -77.24725341796875
559284.0 181654.0 -78.12995910644531
559284.0 181674.0 -79.01266479492188
559284.0 181694.0 -79.89537048339844
558864.0 182414.0 -111.78618621826172
558884.0 182414.0 -111.7807846069336
558904.0 182414.0 -111.77538299560547
558924.0 182414.0 -111.76998138427734
558944.0 182414.0 -111.76458740234375
558964.0 182414.0 -111.75918579101562
558984.0 182414.0 -111.7537841796875
559004.0 182414.0 -111.74838256835938
559024.0 182414.0 -111.74298095703125
559044.0 182414.0 -111.73758697509766
559064.0 182414.0 -111.73218536376953
559084.0 182414.0 -111.7267837524414
559104.0 182414.0 -111.72138214111328
559124.0 182414.0 -111.71598052978516
559144.0 182414.0 -111.71058654785156
559164.0 182414.0 -111.70518493652344
559184.0 182414.0 -111.69978332519531
559204.0 182414.0 -111.69438171386719
559224.0 182414.0 -111.68898010253906
559244.0 182414.0 -111.68358612060547
559264.0 182414.0 -111.67818450927734
559284.0 181714.0 -80.778076171875
559284.0 181734.0 -81.66078186035156
559284.0 181754.0 -82.54348754882812
559284.0 181774.0 -83.42619323730469
559024.0 178394.0 22.483243942260742
559044.0 178394.0 22.052000045776367
559024.0 178414.0 21.557472229003906
559044.0 178374.0 22.11400032043457
559044.0 178414.0 21.22406768798828
559024.0 178434.0 19.760244369506836
559044.0 178434.0 19.499103546142578
559044.0 178334.0 21.95199966430664
559064.0 178334.0 21.38800048828125
559044.0 178354.0 22.025999069213867
559064.0 178314.0 21.176000595092773
559064.0 178354.0 21.549999237060547
559064.0 178374.0 21.75
559064.0 178394.0 21.83799934387207
559064.0 178414.0 21.080310821533203
559064.0 178434.0 19.477567672729492
559084.0 178314.0 20.86199951171875
559064.0 178294.0 20.926000595092773
559084.0 178294.0 20.474000930786133
559084.0 178334.0 21.149999618530273
559084.0 178354.0 21.350000381469727
559084.0 178374.0 21.549999237060547
559084.0 178394.0 21.738000869750977
559084.0 178414.0 20.9497013092041
559084.0 178434.0 19.403486251831055
559104.0 178294.0 20.450000762939453
559104.0 178314.0 20.649999618530273
559104.0 178334.0 20.950000762939453
559104.0 178354.0 21.224000930786133
559104.0 178374.0 21.450000762939453
559104.0 178394.0 21.649999618530273
559104.0 178414.0 20.625411987304688
559104.0 178434.0 19.073942184448242
559104.0 178274.0 20.312000274658203
559124.0 178274.0 20.149999618530273
559124.0 178254.0 20.011999130249023
559124.0 178294.0 20.350000381469727
559124.0 178314.0 20.549999237060547
559124.0 178334.0 20.75
559124.0 178354.0 21.049999237060547
559124.0 178374.0 21.350000381469727
559124.0 178394.0 21.61199951171875
559124.0 178414.0 20.62958335876465
559124.0 178434.0 19.30517578125
559144.0 178254.0 19.91200065612793
559144.0 178274.0 20.049999237060547
559144.0 178294.0 20.211999893188477
559144.0 178314.0 20.41200065612793
559144.0 178334.0 20.549999237060547
559144.0 178354.0 20.672992706298828
559144.0 178374.0 20.66974639892578
559144.0 178394.0 20.83186149597168
559144.0 178414.0 19.99867820739746
559144.0 178434.0 19.04953384399414
559164.0 178274.0 20.011999130249023
559164.0 178294.0 20.13800048828125
559184.0 178274.0 19.937999725341797
559164.0 178314.0 20.312000274658203
559184.0 178294.0 20.049999237060547
559164.0 178334.0 20.388286590576172
559184.0 178314.0 20.13800048828125
559164.0 178354.0 19.465354919433594
559184.0 178334.0 19.180646896362305
559164.0 178374.0 18.82280921936035
559184.0 178354.0 18.25771713256836
559164.0 178394.0 18.479663848876953
559184.0 178374.0 16.97587013244629
559164.0 178414.0 18.857969284057617
559184.0 178394.0 16.175485610961914
559164.0 178434.0 17.93544578552246
559184.0 178414.0 17.178531646728516
559184.0 178434.0 16.794736862182617
559204.0 178294.0 19.775999069213867
559204.0 178314.0 19.950000762939453
559204.0 178334.0 18.666894912719727
559204.0 178354.0 17.050079345703125
559204.0 178374.0 15.138983726501465
559204.0 178394.0 13.871307373046875
559204.0 178414.0 14.809968948364258
559204.0 178434.0 15.65402603149414
559224.0 178294.0 19.549999237060547
559224.0 178314.0 19.649999618530273
559224.0 178334.0 18.1719913482666
559224.0 178354.0 15.761674880981445
559224.0 178374.0 12.81741714477539
559224.0 178394.0 11.567130088806152
559224.0 178414.0 12.44140625
559224.0 178434.0 13.525200843811035
559244.0 178294.0 19.187999725341797
559244.0 178314.0 19.288000106811523
559244.0 178334.0 17.446115493774414
559244.0 178354.0 14.905732154846191
559244.0 178374.0 12.516372680664062
559244.0 178394.0 11.69714069366455
559244.0 178414.0 10.65652084350586
559244.0 178434.0 11.156638145446777
559264.0 178294.0 18.788000106811523
559264.0 178314.0 18.88800048828125
559264.0 178334.0 17.02669334411621
559264.0 178354.0 15.001327514648438
559264.0 178374.0 13.322550773620605
559264.0 178394.0 12.36247730255127
559264.0 178414.0 11.402403831481934
559264.0 178434.0 10.943368911743164
559284.0 178294.0 18.38800048828125
559284.0 178314.0 18.47599983215332
559284.0 178334.0 16.970972061157227
559284.0 178354.0 15.141636848449707
559284.0 178374.0 14.181564331054688
559284.0 178394.0 13.221490859985352
559284.0 178414.0 12.261417388916016
559284.0 178434.0 11.30134391784668
559304.0 178294.0 17.826000213623047
559304.0 178314.0 17.913999557495117
559304.0 178334.0 16.960723876953125
559304.0 178354.0 16.00065040588379
559304.0 178374.0 15.040576934814453
559304.0 178394.0 14.080504417419434
559304.0 178414.0 13.120430946350098
559304.0 178434.0 12.160357475280762
559024.0 178454.0 17.984182357788086
559044.0 178454.0 17.75560188293457
559024.0 178474.0 16.208118438720703
559044.0 178474.0 16.144624710083008
559024.0 178494.0 14.45123291015625
559044.0 178494.0 14.541879653930664
559024.0 178514.0 13.718525886535645
559044.0 178514.0 13.064656257629395
559024.0 178534.0 14.53077507019043
559044.0 178534.0 13.87690544128418
559024.0 178554.0 15.343024253845215
559044.0 178554.0 14.622461318969727
559024.0 178574.0 15.779869079589844
559044.0 178574.0 14.615796089172363
559024.0 178594.0 15.72918701171875
559044.0 178594.0 14.552759170532227
559024.0 178614.0 15.666150093078613
559044.0 178614.0 14.48972225189209
559024.0 178634.0 15.603113174438477
559024.0 178654.0 15.54007625579834
559044.0 178654.0 14.363648414611816
559024.0 178674.0 15.477039337158203
559044.0 178674.0 14.30061149597168
559024.0 178694.0 15.414002418518066
559044.0 178694.0 14.237574577331543
559024.0 178714.0 15.35096549987793
559044.0 178714.0 14.174537658691406
559024.0 178734.0 15.113248825073242
559044.0 178734.0 14.111499786376953
559024.0 178754.0 13.788443565368652
559044.0 178754.0 13.306670188903809
559064.0 178454.0 17.87482261657715
559064.0 178474.0 16.272077560424805
559064.0 178494.0 14.669332504272461
559064.0 178514.0 13.066587448120117
559064.0 178534.0 13.223036766052246
559064.0 178554.0 13.502405166625977
559064.0 178574.0 13.43936824798584
559064.0 178594.0 13.376331329345703
559064.0 178654.0 13.187219619750977
559064.0 178674.0 13.12418270111084
559064.0 178694.0 13.061145782470703
559064.0 178714.0 12.998108863830566
559064.0 178734.0 12.93507194519043
559064.0 178754.0 12.974204063415527
559044.0 178774.0 13.843428611755371
559064.0 178774.0 13.843061447143555
559044.0 178794.0 14.735189437866211
559064.0 178794.0 14.734822273254395
559044.0 178814.0 15.62695026397705
559064.0 178814.0 15.62658405303955
559044.0 178834.0 16.244525909423828
559064.0 178834.0 16.51834487915039
559044.0 178854.0 16.294300079345703
559064.0 178854.0 17.150074005126953
559044.0 178874.0 16.344072341918945
559064.0 178874.0 17.331918716430664
559044.0 178894.0 16.32600975036621
559064.0 178894.0 16.990999221801758
559084.0 178454.0 17.857269287109375
559084.0 178474.0 16.311054229736328
559084.0 178494.0 14.764838218688965
559084.0 178514.0 13.194040298461914
559084.0 178534.0 12.38901424407959
559084.0 178554.0 12.325976371765137
559084.0 178574.0 12.306004524230957
559084.0 178594.0 12.358641624450684
559084.0 178614.0 12.41127872467041
559084.0 178674.0 12.56919002532959
559084.0 178654.0 12.516552925109863
559084.0 178694.0 12.621827125549316
559084.0 178714.0 12.674464225769043
559084.0 178734.0 12.72710132598877
559084.0 178754.0 13.161596298217773
559084.0 178774.0 14.656893730163574
559084.0 178794.0 15.586082458496094
559084.0 178814.0 16.33432960510254
559084.0 178834.0 17.052576065063477
559084.0 178854.0 17.807140350341797
559084.0 178894.0 17.449844360351562
559084.0 178914.0 16.64299964904785
559104.0 178454.0 17.538869857788086
559104.0 178474.0 16.136234283447266
559104.0 178494.0 14.77238655090332
559104.0 178514.0 13.408538818359375
559104.0 178534.0 12.157098770141602
559104.0 178554.0 12.174395561218262
559104.0 178574.0 12.191692352294922
559104.0 178594.0 12.231914520263672
559104.0 178614.0 12.284551620483398
559084.0 178634.0 12.463915824890137
559104.0 178634.0 12.337188720703125
559104.0 178654.0 12.389825820922852
559104.0 178674.0 12.442462921142578
559104.0 178694.0 12.495100021362305
559104.0 178714.0 12.547737121582031
559104.0 178734.0 12.600374221801758
559104.0 178754.0 13.337313652038574
559104.0 178774.0 14.832611083984375
559104.0 178794.0 16.32790756225586
559104.0 178814.0 17.314390182495117
559104.0 178834.0 18.19780158996582
559104.0 178854.0 18.149845123291016
559104.0 178874.0 17.949844360351562
559104.0 178894.0 17.76187515258789
559104.0 178914.0 17.849531173706055
559124.0 178454.0 17.941328048706055
559124.0 178474.0 16.57748031616211
559124.0 178494.0 15.213631629943848
559124.0 178514.0 13.849783897399902
559124.0 178534.0 12.48593521118164
559124.0 178554.0 12.16879940032959
559124.0 178574.0 12.18609619140625
559124.0 178594.0 12.20339298248291
559124.0 178614.0 12.220690727233887
559124.0 178634.0 12.237987518310547
559124.0 178654.0 12.263097763061523
559124.0 178674.0 12.31573486328125
559124.0 178694.0 12.368371963500977
559124.0 178714.0 12.421009063720703
559124.0 178734.0 12.47364616394043
559124.0 178754.0 13.513030052185059
559124.0 178774.0 15.00832748413086
559124.0 178794.0 16.503625869750977
559124.0 178814.0 17.99892234802246
559124.0 178834.0 18.71171760559082
559124.0 178874.0 18.149845123291016
559124.0 178854.0 18.349843978881836
559124.0 178894.0 17.96187400817871
559124.0 178914.0 17.775936126708984
559104.0 178934.0 14.911999702453613
559124.0 178934.0 17.095781326293945
559144.0 178454.0 18.014219284057617
559144.0 178474.0 16.962839126586914
559144.0 178494.0 15.654876708984375
559144.0 178514.0 14.29102897644043
559144.0 178534.0 12.927180290222168
559144.0 178554.0 12.163203239440918
559144.0 178574.0 12.180500984191895
559144.0 178594.0 12.197797775268555
559144.0 178614.0 12.215094566345215
559144.0 178634.0 12.232391357421875
559144.0 178654.0 12.249688148498535
559144.0 178674.0 12.266984939575195
559144.0 178694.0 12.284281730651855
559144.0 178714.0 12.301578521728516
559144.0 178734.0 12.346919059753418
559144.0 178754.0 13.68874740600586
559144.0 178774.0 15.353964805603027
559144.0 178794.0 17.002038955688477
559144.0 178814.0 18.597606658935547
559144.0 178834.0 18.93781280517578
559144.0 178874.0 18.349843978881836
559144.0 178854.0 18.575937271118164
559144.0 178894.0 18.149845123291016
559144.0 178914.0 18.01171875
559144.0 178934.0 17.7237491607666
559124.0 178954.0 14.84000015258789
559144.0 178954.0 17.431875228881836
559164.0 178454.0 17.012924194335938
559164.0 178474.0 16.090402603149414
559184.0 178454.0 15.872214317321777
559164.0 178494.0 15.16788101196289
559184.0 178474.0 14.949692726135254
559164.0 178514.0 14.245359420776367
559184.0 178494.0 14.027170181274414
559164.0 178534.0 13.296092987060547
559184.0 178514.0 13.10464859008789
559164.0 178554.0 12.157608032226562
559184.0 178534.0 12.182126998901367
559164.0 178574.0 12.174904823303223
559184.0 178554.0 12.036978721618652
559164.0 178594.0 12.192201614379883
559184.0 178574.0 12.057672500610352
559164.0 178614.0 12.197897911071777
559184.0 178594.0 12.078492164611816
559164.0 178634.0 12.201196670532227
559184.0 178614.0 12.131649017333984
559164.0 178654.0 12.20449447631836
559184.0 178634.0 12.184806823730469
559164.0 178674.0 12.214059829711914
559184.0 178654.0 12.237964630126953
559164.0 178694.0 12.267216682434082
559184.0 178674.0 12.291122436523438
559164.0 178714.0 12.320374488830566
559184.0 178694.0 12.344280242919922
559164.0 178734.0 12.648897171020508
559184.0 178714.0 12.397438049316406
559164.0 178754.0 14.947890281677246
559184.0 178734.0 13.28499698638916
559164.0 178774.0 16.54486846923828
559184.0 178754.0 16.004758834838867
559164.0 178794.0 18.141847610473633
559184.0 178774.0 18.138275146484375
559164.0 178814.0 19.537813186645508
559184.0 178794.0 19.62942886352539
559164.0 178834.0 19.075937271118164
559184.0 178814.0 19.824295043945312
559164.0 178854.0 18.74984359741211
559184.0 178834.0 19.275936126708984
559164.0 178874.0 18.54984474182129
559184.0 178874.0 18.911718368530273
559184.0 178854.0 19.111719131469727
559164.0 178894.0 18.423749923706055
559164.0 178914.0 18.24984359741211
559184.0 178894.0 18.71171760559082
559164.0 178934.0 18.037813186645508
559184.0 178914.0 18.573593139648438
559164.0 178954.0 17.599687576293945
559184.0 178934.0 18.237812042236328
559144.0 178974.0 15.405387878417969
559164.0 178974.0 16.545839309692383
559184.0 178954.0 17.951875686645508
559184.0 178974.0 17.56156349182129
559164.0 178994.0 14.102592468261719
559184.0 178994.0 15.316086769104004
559204.0 178454.0 14.731504440307617
559204.0 178474.0 13.808981895446777
559204.0 178494.0 12.886460304260254
559204.0 178514.0 11.96393871307373
559204.0 178534.0 11.791820526123047
559204.0 178554.0 11.917183876037598
559204.0 178574.0 12.071818351745605
559204.0 178594.0 12.15555477142334
559204.0 178614.0 12.208712577819824
559204.0 178634.0 12.261870384216309
559204.0 178654.0 12.315028190612793
559204.0 178674.0 12.368185997009277
559204.0 178694.0 12.421343803405762
559204.0 178714.0 12.47450065612793
559204.0 178734.0 13.921096801757812
559204.0 178754.0 16.640859603881836
559204.0 178774.0 19.35186195373535
559204.0 178794.0 20.599687576293945
559204.0 178814.0 20.18765640258789
559204.0 178834.0 19.746999740600586
559204.0 178874.0 19.311717987060547
559204.0 178854.0 19.51171875
559204.0 178894.0 19.037813186645508
559204.0 178914.0 18.74984359741211
559204.0 178934.0 18.43781280517578
559204.0 178954.0 18.04984474182129
559204.0 178974.0 17.737812042236328
559204.0 178994.0 16.1704044342041
559224.0 178454.0 13.59079360961914
559224.0 178474.0 12.668272018432617
559224.0 178494.0 11.745750427246094
559224.0 178514.0 11.547046661376953
559224.0 178534.0 11.696263313293457
559224.0 178554.0 11.812694549560547
559224.0 178574.0 12.021011352539062
559224.0 178594.0 12.157302856445312
559224.0 178614.0 12.258726119995117
559224.0 178634.0 12.338932991027832
559224.0 178654.0 12.392090797424316
559224.0 178674.0 12.4452486038208
559224.0 178694.0 12.498406410217285
559224.0 178714.0 12.55156421661377
559224.0 178734.0 14.557196617126465
559224.0 178754.0 17.276958465576172
559224.0 178774.0 19.996721267700195
559224.0 178794.0 20.911718368530273
559224.0 178814.0 20.599687576293945
559224.0 178834.0 20.199687957763672
559224.0 178874.0 19.699687957763672
559224.0 178854.0 19.911718368530273
559224.0 178894.0 19.411718368530273
559224.0 178914.0 19.099687576293945
559224.0 178934.0 18.71171760559082
559224.0 178954.0 18.311717987060547
559224.0 178974.0 17.93781280517578
559224.0 178994.0 17.525781631469727
559204.0 179014.0 12.146855354309082
559224.0 179014.0 12.745356559753418
559244.0 178454.0 12.240432739257812
559244.0 178474.0 11.52756118774414
559244.0 178494.0 11.326126098632812
559244.0 178514.0 11.475343704223633
559244.0 178534.0 11.624560356140137
559244.0 178554.0 11.732574462890625
559244.0 178574.0 11.94089126586914
559244.0 178594.0 12.141363143920898
559244.0 178614.0 12.242786407470703
559244.0 178634.0 12.344210624694824
559244.0 178654.0 12.445633888244629
559244.0 178674.0 12.52231216430664
559244.0 178694.0 12.575469970703125
559244.0 178714.0 12.62862777709961
559244.0 178734.0 15.193296432495117
559244.0 178754.0 18.00556755065918
559244.0 178774.0 20.899398803710938
559244.0 178794.0 21.2996883392334
559244.0 178814.0 20.99968719482422
559244.0 178834.0 20.611719131469727
559244.0 178854.0 20.311717987060547
559244.0 178874.0 20.099687576293945
559244.0 178894.0 19.7996883392334
559244.0 178914.0 19.411718368530273
559244.0 178934.0 19.099687576293945
559244.0 178954.0 18.699687957763672
559244.0 178974.0 18.2996883392334
559244.0 178994.0 17.899686813354492
559244.0 179014.0 16.238849639892578
559224.0 179034.0 11.743303298950195
559244.0 179034.0 13.986188888549805
559264.0 178454.0 11.044902801513672
559264.0 178474.0 11.113130569458008
559264.0 178494.0 11.254423141479492
559264.0 178514.0 11.403639793395996
559264.0 178534.0 11.507430076599121
559264.0 178554.0 11.652453422546387
559264.0 178574.0 11.860770225524902
559264.0 178594.0 12.069087028503418
559264.0 178614.0 12.226847648620605
559264.0 178634.0 12.32827091217041
559264.0 178654.0 12.429694175720215
559264.0 178674.0 12.531118392944336
559264.0 178694.0 12.63254165649414
559264.0 178714.0 13.109633445739746
559264.0 178734.0 15.96971321105957
559264.0 178754.0 18.8353271484375
559264.0 178774.0 21.696943283081055
559264.0 178794.0 21.699687957763672
559264.0 178814.0 21.399686813354492
559264.0 178834.0 20.949844360351562
559264.0 178854.0 20.71171760559082
559264.0 178874.0 20.43781280517578
559264.0 178894.0 20.199687957763672
559264.0 178914.0 19.873594284057617
559264.0 178934.0 19.49968719482422
559264.0 178954.0 18.99968719482422
559264.0 178974.0 18.637813568115234
559264.0 178994.0 18.2996883392334
559264.0 179014.0 17.861562728881836
559264.0 179034.0 17.055131912231445
559244.0 179054.0 13.19150447845459
559264.0 179054.0 15.227021217346191
559284.0 178454.0 11.230216979980469
559284.0 178474.0 11.292285919189453
559284.0 178494.0 11.319902420043945
559284.0 178514.0 11.347519874572754
559284.0 178534.0 11.403158187866211
559284.0 178554.0 11.589794158935547
559284.0 178574.0 11.786062240600586
559284.0 178594.0 11.98896598815918
559284.0 178614.0 12.197282791137695
559284.0 178634.0 12.311832427978516
559284.0 178654.0 12.411507606506348
559284.0 178674.0 12.511181831359863
559284.0 178694.0 12.62846565246582
559284.0 178714.0 12.936749458312988
559284.0 178734.0 16.036449432373047
559284.0 178754.0 19.129276275634766
559284.0 178774.0 22.026447296142578
559284.0 178794.0 22.26156234741211
559284.0 178814.0 21.861562728881836
559284.0 178834.0 21.461563110351562
559284.0 178854.0 21.073593139648438
559284.0 178874.0 20.811717987060547
559284.0 178894.0 20.611719131469727
559284.0 178914.0 20.38765525817871
559284.0 178934.0 19.961563110351562
559284.0 178954.0 19.549531936645508
559284.0 178974.0 19.099687576293945
559284.0 178994.0 18.76156234741211
559284.0 179014.0 18.361562728881836
559284.0 179034.0 17.88765525817871
559284.0 179054.0 17.441028594970703
559264.0 179074.0 14.774214744567871
559284.0 179074.0 16.65262222290039
559264.0 179094.0 11.926173210144043
559284.0 179094.0 16.207935333251953
559304.0 178454.0 11.41553020477295
559304.0 178474.0 11.471442222595215
559304.0 178494.0 11.510175704956055
559304.0 178514.0 11.488236427307129
559304.0 178534.0 11.518238067626953
559304.0 178554.0 11.714506149291992
559304.0 178574.0 11.910774230957031
559304.0 178594.0 12.107041358947754
559304.0 178614.0 12.261682510375977
559304.0 178634.0 12.378829956054688
559304.0 178654.0 12.472143173217773
559304.0 178674.0 12.56545639038086
559304.0 178694.0 12.765559196472168
559304.0 178714.0 14.987466812133789
559304.0 178734.0 16.681270599365234
559304.0 178754.0 21.343563079833984
559304.0 178774.0 20.780460357666016
559304.0 178794.0 21.449308395385742
559304.0 178814.0 22.523000717163086
559304.0 178834.0 22.12299919128418
559304.0 178854.0 21.722999572753906
559304.0 178874.0 21.334999084472656
559304.0 178894.0 21.08562469482422
559304.0 178914.0 20.873594284057617
559304.0 178934.0 20.56156349182129
559304.0 178954.0 20.222999572753906
559304.0 178974.0 19.722999572753906
559304.0 178994.0 19.26156234741211
559304.0 179014.0 18.861562728881836
559304.0 179034.0 18.399686813354492
559304.0 179054.0 17.961563110351562
559304.0 179074.0 17.487655639648438
559304.0 179094.0 16.961563110351562
559004.0 178414.0 22.287174224853516
559004.0 178434.0 20.445199966430664
559024.0 178354.0 22.613962173461914
559024.0 178374.0 22.583309173583984
559044.0 178314.0 21.852500915527344
559064.0 178274.0 20.66200065612793
559104.0 178254.0 20.149999618530273
559124.0 178234.0 19.724000930786133
559144.0 178234.0 19.83578109741211
559164.0 178234.0 19.711999893188477
559164.0 178254.0 19.91200065612793
559184.0 178254.0 19.812000274658203
