557844.0 180034.0 12.923999786376953
557844.0 180054.0 13.49899959564209
557824.0 180054.0 13.56265640258789
557844.0 179974.0 8.36875057220459
557864.0 179974.0 7.830999851226807
557844.0 179994.0 11.270000457763672
557864.0 179994.0 10.96078109741211
557844.0 180014.0 12.497968673706055
557864.0 180014.0 12.399999618530273
557864.0 180034.0 12.675999641418457
557864.0 180054.0 13.400781631469727
557884.0 179994.0 9.675000190734863
557884.0 180014.0 11.626718521118164
557884.0 180034.0 12.137999534606934
557884.0 180054.0 13.536874771118164
557904.0 180014.0 10.738749504089355
557904.0 180034.0 11.538000106811523
557904.0 180054.0 13.614530563354492
557924.0 180014.0 9.950780868530273
557924.0 180034.0 10.974531173706055
557924.0 180054.0 14.22700023651123
557944.0 180014.0 7.727968692779541
557944.0 180034.0 9.85099983215332
557944.0 180054.0 14.149999618530273
557964.0 180014.0 4.984000205993652
557964.0 180034.0 8.805000305175781
557984.0 180034.0 6.739999771118164
557984.0 180054.0 10.591875076293945
557964.0 180054.0 13.776000022888184
558004.0 180034.0 3.378999948501587
558004.0 180054.0 6.754000186920166
557824.0 180074.0 16.61400032043457
557844.0 180074.0 16.013999938964844
557824.0 180094.0 16.349687576293945
557844.0 180094.0 15.76171875
557864.0 180074.0 16.033000946044922
557864.0 180094.0 15.80453109741211
557884.0 180074.0 15.814000129699707
557884.0 180094.0 15.525625228881836
557904.0 180074.0 15.21399974822998
557904.0 180094.0 14.694000244140625
557884.0 180114.0 13.639531135559082
557904.0 180114.0 14.53499984741211
557924.0 180074.0 14.61400032043457
557924.0 180094.0 14.62399959564209
557924.0 180114.0 15.869531631469727
557944.0 180074.0 14.187999725341797
557944.0 180094.0 14.410624504089355
557944.0 180114.0 16.520000457763672
557924.0 180134.0 15.98799991607666
557944.0 180134.0 17.08171844482422
557984.0 180074.0 11.758999824523926
557964.0 180074.0 13.838000297546387
557964.0 180094.0 14.070781707763672
557984.0 180094.0 13.01099967956543
557964.0 180114.0 16.524686813354492
557984.0 180114.0 15.49899959564209
557964.0 180134.0 17.51171875
557984.0 180134.0 18.155780792236328
557944.0 180154.0 15.583999633789062
557964.0 180154.0 17.744531631469727
557984.0 180154.0 20.006999969482422
557984.0 180174.0 19.69499969482422
557964.0 180174.0 16.835214614868164
557984.0 180194.0 12.222525596618652
558004.0 180074.0 8.906000137329102
558004.0 180094.0 10.9399995803833
558004.0 180114.0 14.009842872619629
558004.0 180134.0 18.361717224121094
558004.0 180154.0 21.639999389648438
558004.0 180174.0 20.934999465942383
558004.0 180194.0 20.372968673706055
558024.0 180094.0 7.792500019073486
558024.0 180114.0 10.83899974822998
558024.0 180134.0 16.44499969482422
558024.0 180154.0 18.8439998626709
558024.0 180174.0 20.354999542236328
558024.0 180194.0 20.256563186645508
558044.0 180134.0 10.760624885559082
558044.0 180154.0 14.921562194824219
558044.0 180174.0 17.7059383392334
558044.0 180194.0 19.214000701904297
558024.0 180214.0 19.494449615478516
558044.0 180214.0 19.176000595092773
558064.0 180174.0 13.918999671936035
558064.0 180194.0 17.364999771118164
558064.0 180214.0 19.097999572753906
558044.0 180234.0 19.95400047302246
558064.0 180234.0 20.385000228881836
558084.0 180194.0 15.12600040435791
558084.0 180214.0 18.361000061035156
558084.0 180234.0 20.785999298095703
558104.0 180194.0 11.475000381469727
558104.0 180214.0 16.562000274658203
558104.0 180234.0 19.663000106811523
558124.0 180214.0 13.734000205993652
558124.0 180234.0 17.972999572753906
558104.0 180254.0 21.121999740600586
558124.0 180254.0 19.797000885009766
558144.0 180214.0 11.166874885559082
558144.0 180234.0 17.694000244140625
558144.0 180254.0 19.359844207763672
558164.0 180214.0 8.884531021118164
558164.0 180234.0 17.633594512939453
558164.0 180254.0 19.897655487060547
558144.0 180274.0 19.661874771118164
558164.0 180274.0 19.94953155517578
558184.0 180214.0 7.917656421661377
558184.0 180234.0 15.844531059265137
558184.0 180254.0 20.178905487060547
558184.0 180274.0 20.934999465942383
558204.0 180214.0 8.306718826293945
558204.0 180234.0 14.376999855041504
558204.0 180254.0 18.811561584472656
558204.0 180274.0 21.32200050354004
558184.0 180294.0 20.270936965942383
558204.0 180294.0 21.934843063354492
558224.0 180214.0 8.803000450134277
558224.0 180234.0 13.7787504196167
558224.0 180254.0 17.39484405517578
558224.0 180274.0 20.7549991607666
558224.0 180294.0 23.1299991607666
558204.0 180314.0 20.98200035095215
558224.0 180314.0 23.158906936645508
558244.0 180234.0 14.100000381469727
558244.0 180214.0 8.536999702453613
558244.0 180254.0 17.719999313354492
558244.0 180274.0 20.356718063354492
558244.0 180294.0 22.947999954223633
558244.0 180314.0 24.304000854492188
558244.0 180334.0 24.473905563354492
558224.0 180334.0 23.139999389648438
558264.0 180214.0 7.116718769073486
558264.0 180234.0 13.864999771118164
558284.0 180214.0 8.203906059265137
558264.0 180254.0 16.984844207763672
558284.0 180234.0 14.101875305175781
558264.0 180274.0 19.62093734741211
558284.0 180254.0 16.304000854492188
558264.0 180294.0 22.384843826293945
558284.0 180274.0 18.572999954223633
558264.0 180314.0 24.27400016784668
558284.0 180294.0 21.7567195892334
558264.0 180334.0 24.538000106811523
558284.0 180314.0 23.55299949645996
558284.0 180334.0 24.187999725341797
558304.0 180214.0 11.350000381469727
558304.0 180194.0 5.431874752044678
558304.0 180234.0 15.42300033569336
558304.0 180254.0 18.229000091552734
558304.0 180274.0 19.944000244140625
558304.0 180294.0 21.80500030517578
558304.0 180314.0 22.579843521118164
558324.0 180194.0 11.467000007629395
558324.0 180174.0 5.248593807220459
558324.0 180214.0 15.38656234741211
558324.0 180234.0 17.53700065612793
558324.0 180254.0 20.69890594482422
558324.0 180274.0 22.852813720703125
558324.0 180294.0 24.176563262939453
558324.0 180314.0 24.680999755859375
558344.0 180174.0 9.71500015258789
558344.0 180194.0 14.830781936645508
558344.0 180214.0 16.0939998626709
558344.0 180234.0 18.479999542236328
558344.0 180254.0 21.6299991607666
558344.0 180274.0 23.96781349182129
558344.0 180294.0 26.378000259399414
558364.0 180174.0 11.196718215942383
558364.0 180194.0 16.68359375
558364.0 180214.0 17.293594360351562
558364.0 180234.0 18.44700050354004
558364.0 180254.0 21.268749237060547
558364.0 180274.0 24.243999481201172
558364.0 180294.0 26.632999420166016
558384.0 180174.0 12.371999740600586
558384.0 180194.0 16.40593719482422
558384.0 180214.0 17.8839054107666
558384.0 180234.0 19.091875076293945
558384.0 180254.0 21.63968849182129
558384.0 180274.0 24.21859359741211
558384.0 180294.0 26.947999954223633
558404.0 180174.0 12.016562461853027
558404.0 180194.0 16.621999740600586
558404.0 180214.0 18.181875228881836
558404.0 180234.0 20.20800018310547
558404.0 180254.0 22.815937042236328
558404.0 180274.0 25.795623779296875
558404.0 180294.0 26.423999786376953
558424.0 180194.0 15.64765739440918
558424.0 180214.0 18.631999969482422
558424.0 180234.0 20.096874237060547
558424.0 180254.0 23.282812118530273
558424.0 180274.0 25.024686813354492
558424.0 180294.0 26.164531707763672
558444.0 180194.0 12.748906135559082
558444.0 180214.0 17.853750228881836
558444.0 180234.0 20.158000946044922
558444.0 180254.0 21.63296890258789
558444.0 180274.0 24.098905563354492
558444.0 180294.0 25.71062469482422
558464.0 180214.0 15.396718978881836
558464.0 180234.0 19.73900032043457
558464.0 180254.0 21.310625076293945
558464.0 180274.0 22.836999893188477
558464.0 180294.0 24.7109375
558484.0 180214.0 12.829999923706055
558484.0 180234.0 18.79199981689453
558484.0 180254.0 21.010000228881836
558484.0 180274.0 21.493000030517578
558484.0 180294.0 23.204687118530273
558504.0 180214.0 10.130999565124512
558504.0 180234.0 17.481718063354492
558504.0 180254.0 21.43000030517578
558504.0 180274.0 22.886999130249023
558504.0 180294.0 23.567501068115234
558524.0 180234.0 15.91578197479248
558524.0 180254.0 21.39453125
558524.0 180274.0 24.30299949645996
558524.0 180294.0 25.814687728881836
558544.0 180234.0 14.411999702453613
558544.0 180254.0 21.862655639648438
558544.0 180274.0 25.991561889648438
558544.0 180294.0 27.405624389648438
558564.0 180234.0 14.017656326293945
558564.0 180254.0 21.701000213623047
558584.0 180234.0 12.274999618530273
558564.0 180274.0 26.144689559936523
558584.0 180254.0 21.349000930786133
558564.0 180294.0 27.760000228881836
558584.0 180274.0 25.946718215942383
558584.0 180294.0 27.314687728881836
558564.0 180314.0 28.426000595092773
558584.0 180314.0 28.026718139648438
558604.0 180234.0 10.188749313354492
558604.0 180254.0 19.604000091552734
558604.0 180274.0 24.422657012939453
558604.0 180294.0 26.414688110351562
558604.0 180314.0 27.474000930786133
558584.0 180334.0 28.562000274658203
558604.0 180334.0 28.209999084472656
558624.0 180234.0 7.791676998138428
558624.0 180254.0 18.09375
558624.0 180274.0 21.947656631469727
558624.0 180294.0 25.111000061035156
558624.0 180314.0 27.7578125
558624.0 180334.0 29.017000198364258
558644.0 180234.0 6.514531135559082
558644.0 180254.0 16.974687576293945
558644.0 180274.0 20.81100082397461
558644.0 180294.0 24.065000534057617
558644.0 180314.0 27.513593673706055
558644.0 180334.0 29.35300064086914
558664.0 180234.0 4.385781288146973
558664.0 180254.0 14.751873970031738
558664.0 180274.0 20.31656265258789
558664.0 180294.0 23.544687271118164
558664.0 180314.0 25.996875762939453
558664.0 180334.0 28.06281089782715
558684.0 180234.0 4.203750133514404
558684.0 180254.0 12.529000282287598
558684.0 180274.0 21.0948429107666
558684.0 180294.0 23.506000518798828
558684.0 180314.0 25.881999969482422
558684.0 180334.0 27.54800033569336
558704.0 180254.0 9.61299991607666
558704.0 180274.0 18.652000427246094
558704.0 180294.0 23.8799991607666
558704.0 180314.0 26.305936813354492
558704.0 180334.0 27.535999298095703
558724.0 180254.0 5.663906574249268
558724.0 180274.0 16.2578125
558724.0 180294.0 23.385000228881836
558724.0 180314.0 26.357999801635742
558724.0 180334.0 27.200000762939453
558704.0 180354.0 28.025999069213867
558724.0 180354.0 27.549999237060547
558744.0 180274.0 12.003999710083008
558744.0 180294.0 19.990781784057617
558744.0 180314.0 24.465999603271484
558744.0 180334.0 26.738750457763672
558744.0 180354.0 27.46187400817871
558764.0 180274.0 6.359687805175781
558764.0 180294.0 16.463905334472656
558764.0 180314.0 21.772655487060547
558764.0 180334.0 24.729999542236328
558764.0 180354.0 26.652999877929688
558784.0 180274.0 4.771999835968018
558784.0 180294.0 13.45199966430664
558784.0 180314.0 19.60700035095215
558784.0 180334.0 22.015625
558784.0 180354.0 23.455781936645508
558804.0 180274.0 4.160937309265137
558804.0 180294.0 11.413999557495117
558804.0 180314.0 17.38599967956543
558804.0 180334.0 20.288999557495117
558804.0 180354.0 21.96078109741211
558784.0 180374.0 24.764842987060547
558804.0 180374.0 23.822969436645508
558824.0 180294.0 9.324999809265137
558824.0 180314.0 15.057968139648438
558824.0 180334.0 18.78952980041504
558824.0 180354.0 20.9989070892334
558824.0 180374.0 22.858999252319336
558844.0 180294.0 7.587656497955322
558844.0 180314.0 13.18375015258789
558844.0 180334.0 16.959686279296875
558844.0 180354.0 19.836999893188477
558844.0 180374.0 21.400938034057617
558864.0 180314.0 11.643593788146973
558864.0 180334.0 15.470999717712402
558884.0 180314.0 10.343000411987305
558864.0 180354.0 18.94499969482422
558884.0 180334.0 14.256999969482422
558864.0 180374.0 20.91200065612793
558884.0 180354.0 17.28499984741211
558844.0 180394.0 22.47687530517578
558864.0 180394.0 21.612655639648438
558884.0 180374.0 19.779531478881836
558884.0 180394.0 20.65999984741211
558904.0 180314.0 8.859687805175781
558904.0 180334.0 12.509531021118164
558904.0 180354.0 15.560999870300293
558904.0 180374.0 18.075000762939453
558904.0 180394.0 20.010623931884766
558884.0 180414.0 21.874530792236328
558904.0 180414.0 21.559999465942383
558924.0 180314.0 7.692999839782715
558924.0 180334.0 11.371000289916992
558924.0 180354.0 14.28499984741211
558924.0 180374.0 16.934999465942383
558924.0 180394.0 19.50859260559082
558924.0 180414.0 21.90593719482422
558904.0 180434.0 22.430999755859375
558924.0 180434.0 23.595624923706055
558944.0 180314.0 7.539999961853027
558944.0 180334.0 10.7446870803833
558944.0 180354.0 13.347000122070312
558944.0 180374.0 15.958999633789062
558944.0 180394.0 18.868999481201172
558944.0 180414.0 22.086999893188477
558944.0 180434.0 24.07200050354004
558924.0 180454.0 24.407655715942383
558944.0 180454.0 24.711999893188477
558924.0 180474.0 24.941999435424805
558944.0 180474.0 24.356000900268555
558924.0 180494.0 22.80500030517578
558944.0 180494.0 21.697999954223633
558964.0 180314.0 7.75600004196167
558964.0 180334.0 10.1587495803833
558964.0 180354.0 12.335000038146973
558964.0 180374.0 14.623000144958496
558964.0 180394.0 17.223594665527344
558964.0 180414.0 20.385780334472656
558964.0 180434.0 22.79359245300293
558964.0 180454.0 23.231000900268555
558964.0 180474.0 22.475000381469727
558964.0 180494.0 20.42484474182129
558944.0 180514.0 19.45400047302246
558964.0 180514.0 18.544530868530273
558984.0 180314.0 7.558000087738037
558984.0 180334.0 9.382326126098633
558984.0 180354.0 11.310937881469727
558984.0 180374.0 13.125
558984.0 180394.0 14.9399995803833
558984.0 180414.0 17.08300018310547
558984.0 180434.0 18.85099983215332
558984.0 180454.0 19.388593673706055
558984.0 180474.0 19.537813186645508
558984.0 180494.0 18.325000762939453
558984.0 180514.0 17.216718673706055
559004.0 180314.0 6.932513236999512
559004.0 180334.0 7.996950626373291
559004.0 180354.0 9.641098022460938
559004.0 180374.0 11.579826354980469
559004.0 180394.0 12.83899974822998
559004.0 180414.0 13.751718521118164
559004.0 180434.0 15.258999824523926
559004.0 180454.0 16.193593978881836
559004.0 180474.0 16.321718215942383
559004.0 180494.0 16.30699920654297
559004.0 180514.0 16.27656364440918
558984.0 180534.0 17.22599983215332
559004.0 180534.0 16.700000762939453
559024.0 180314.0 5.278055667877197
559024.0 180334.0 6.258656024932861
559024.0 180354.0 7.833687782287598
559024.0 180374.0 10.085322380065918
559024.0 180394.0 11.588906288146973
559024.0 180414.0 12.600937843322754
559024.0 180434.0 13.71500015258789
559024.0 180454.0 14.490937232971191
559024.0 180474.0 14.716718673706055
559024.0 180494.0 15.114686965942383
559024.0 180514.0 15.637999534606934
559024.0 180534.0 16.200000762939453
559004.0 180554.0 17.038000106811523
559024.0 180554.0 16.600000381469727
559044.0 180314.0 3.623598098754883
559044.0 180334.0 4.322109699249268
559044.0 180354.0 6.026278018951416
559044.0 180374.0 8.583863258361816
559044.0 180394.0 10.462812423706055
559044.0 180414.0 11.488905906677246
559044.0 180434.0 12.476875305175781
559044.0 180454.0 13.326719284057617
559044.0 180474.0 13.876562118530273
559044.0 180494.0 14.449999809265137
559044.0 180514.0 15.0625
559044.0 180534.0 15.711999893188477
559044.0 180554.0 16.100000381469727
559024.0 180574.0 16.937999725341797
559044.0 180574.0 16.426000595092773
559064.0 180314.0 2.31602144241333
559064.0 180334.0 2.3855631351470947
559064.0 180354.0 4.019277095794678
559064.0 180374.0 6.986473560333252
559064.0 180394.0 9.362812995910645
559064.0 180414.0 10.388906478881836
559064.0 180434.0 11.512656211853027
559064.0 180454.0 12.46250057220459
559064.0 180474.0 13.088593482971191
559064.0 180494.0 13.700624465942383
559064.0 180514.0 14.52400016784668
559064.0 180534.0 15.137999534606934
559064.0 180554.0 15.538000106811523
559064.0 180574.0 16.0
559044.0 180594.0 16.799999237060547
559064.0 180594.0 16.288000106811523
559044.0 180614.0 17.125999450683594
559064.0 180614.0 16.538000106811523
559044.0 180634.0 17.426000595092773
559064.0 180634.0 16.937999725341797
559044.0 180654.0 17.788000106811523
559064.0 180654.0 17.38800048828125
559084.0 180314.0 4.023309707641602
559084.0 180334.0 4.459383487701416
559084.0 180354.0 5.418435096740723
559084.0 180374.0 7.55391788482666
559084.0 180394.0 8.78600025177002
559084.0 180414.0 9.465781211853027
559084.0 180434.0 10.935999870300293
559084.0 180454.0 11.923999786376953
559084.0 180474.0 12.600000381469727
559084.0 180494.0 13.197999954223633
559084.0 180514.0 14.050000190734863
559084.0 180534.0 14.612000465393066
559084.0 180554.0 15.038000106811523
559084.0 180574.0 15.5
559084.0 180594.0 15.826000213623047
559084.0 180614.0 16.16200065612793
559084.0 180634.0 16.5
559084.0 180654.0 16.876562118530273
559064.0 180674.0 17.72599983215332
559084.0 180674.0 17.288593292236328
559064.0 180694.0 18.149999618530273
559084.0 180694.0 17.740781784057617
559104.0 180314.0 5.02400016784668
559104.0 180334.0 5.923999786376953
559104.0 180354.0 6.823999881744385
559104.0 180374.0 7.697999954223633
559104.0 180394.0 8.597999572753906
559104.0 180414.0 9.597999572753906
559104.0 180434.0 10.597999572753906
559104.0 180454.0 11.586000442504883
559104.0 180474.0 12.28600025177002
559104.0 180494.0 12.911999702453613
559104.0 180514.0 13.449999809265137
559104.0 180534.0 14.112000465393066
559104.0 180554.0 14.600000381469727
559104.0 180574.0 14.826000213623047
559104.0 180594.0 15.026000022888184
559104.0 180614.0 15.276000022888184
559104.0 180634.0 15.437999725341797
559104.0 180654.0 15.785624504089355
559104.0 180674.0 16.132999420166016
559104.0 180694.0 16.318750381469727
559084.0 180714.0 17.91699981689453
559104.0 180714.0 16.441999435424805
559124.0 180334.0 5.535999774932861
559124.0 180354.0 6.498000144958496
559124.0 180374.0 7.423999786376953
559124.0 180394.0 8.39799976348877
559124.0 180414.0 9.472000122070312
559124.0 180434.0 10.5600004196167
559124.0 180454.0 11.447999954223633
559124.0 180474.0 12.236000061035156
559124.0 180494.0 12.797968864440918
559124.0 180514.0 13.336000442504883
559124.0 180534.0 13.923999786376953
559124.0 180554.0 14.187999725341797
559124.0 180574.0 14.600000381469727
559124.0 180594.0 15.149999618530273
559124.0 180614.0 15.461999893188477
559124.0 180634.0 15.812000274658203
559124.0 180654.0 16.51265525817871
559124.0 180674.0 17.040781021118164
559124.0 180694.0 17.352500915527344
559124.0 180714.0 17.576000213623047
559104.0 180734.0 16.516000747680664
559124.0 180734.0 17.711999893188477
559144.0 180354.0 6.136000156402588
559144.0 180374.0 7.136000156402588
559144.0 180394.0 8.180609703063965
559144.0 180414.0 9.3100004196167
559144.0 180434.0 10.534000396728516
559144.0 180454.0 11.621999740600586
559144.0 180474.0 12.533750534057617
559144.0 180494.0 13.047812461853027
559144.0 180514.0 13.57187557220459
559144.0 180534.0 14.135781288146973
559144.0 180554.0 14.299687385559082
559144.0 180574.0 14.659843444824219
559144.0 180594.0 15.01200008392334
559144.0 180614.0 15.149999618530273
559144.0 180634.0 15.383906364440918
559144.0 180654.0 15.899999618530273
559144.0 180674.0 16.124000549316406
559144.0 180694.0 16.738000869750977
559144.0 180714.0 17.187999725341797
559144.0 180734.0 17.562000274658203
559124.0 180754.0 18.02400016784668
559144.0 180754.0 18.035999298095703
559164.0 180374.0 6.835999965667725
559164.0 180394.0 8.010000228881836
559184.0 180374.0 6.447999954223633
559164.0 180414.0 9.258647918701172
559184.0 180394.0 7.7220001220703125
559164.0 180434.0 10.609940528869629
559184.0 180414.0 9.121999740600586
559164.0 180454.0 11.934000015258789
559164.0 180474.0 13.147811889648438
559164.0 180494.0 13.68359375
559164.0 180514.0 14.209687232971191
559164.0 180534.0 14.609687805175781
559164.0 180554.0 14.897656440734863
559164.0 180574.0 15.135781288146973
559164.0 180594.0 15.223750114440918
559164.0 180614.0 15.130999565124512
559184.0 180594.0 15.785624504089355
559164.0 180634.0 15.485937118530273
559184.0 180614.0 15.697656631469727
559164.0 180654.0 15.649999618530273
559184.0 180634.0 15.661874771118164
559164.0 180674.0 15.899999618530273
559184.0 180654.0 15.573906898498535
559164.0 180694.0 16.450000762939453
559184.0 180674.0 15.897968292236328
559164.0 180714.0 16.93600082397461
559184.0 180694.0 16.43600082397461
559164.0 180734.0 17.461999893188477
559184.0 180714.0 16.93600082397461
559164.0 180754.0 18.035999298095703
559184.0 180734.0 17.43600082397461
559144.0 180774.0 18.63599967956543
559164.0 180774.0 18.648000717163086
559184.0 180754.0 17.947999954223633
559184.0 180774.0 18.573999404907227
559164.0 180794.0 19.236000061035156
559184.0 180794.0 19.16200065612793
559204.0 180614.0 16.173593521118164
559204.0 180674.0 16.0859375
559204.0 180694.0 16.52400016784668
559204.0 180714.0 16.997968673706055
559204.0 180734.0 17.423999786376953
559204.0 180754.0 17.836000442504883
559204.0 180774.0 18.474000930786133
559204.0 180794.0 19.035999298095703
559224.0 180674.0 16.173906326293945
559224.0 180694.0 16.685937881469727
559224.0 180714.0 17.0859375
559224.0 180734.0 17.485937118530273
559224.0 180754.0 17.836000442504883
559224.0 180774.0 18.43600082397461
559224.0 180794.0 18.93600082397461
559244.0 180674.0 16.63578224182129
559244.0 180694.0 16.947813034057617
559244.0 180714.0 17.34781265258789
559244.0 180734.0 17.735780715942383
559244.0 180754.0 17.91200065612793
559244.0 180774.0 18.336000442504883
559244.0 180794.0 18.874000549316406
559264.0 180694.0 17.383594512939453
559264.0 180714.0 17.747812271118164
559264.0 180734.0 18.10968780517578
559264.0 180754.0 18.235780715942383
559264.0 180774.0 18.559843063354492
559264.0 180794.0 18.985937118530273
557804.0 179974.0 8.420424461364746
557824.0 179974.0 8.668000221252441
557804.0 179994.0 9.64856243133545
557824.0 179954.0 5.844687461853027
557824.0 179994.0 10.446611404418945
557824.0 180034.0 12.606161117553711
557804.0 180054.0 12.333233833312988
557824.0 179934.0 3.260999917984009
557844.0 179934.0 1.6230065822601318
557844.0 179954.0 4.833000183105469
557824.0 180014.0 11.548864364624023
557864.0 179954.0 3.7362301349639893
557884.0 179954.0 2.709531307220459
557884.0 179974.0 6.283750057220459
557904.0 179974.0 4.683000087738037
557904.0 179994.0 8.097000122070312
557924.0 179994.0 6.139385223388672
557944.0 179994.0 3.8218748569488525
557964.0 179994.0 1.5281215906143188
558004.0 180014.0 0.7998437285423279
558024.0 180014.0 -5.0724968910217285
558024.0 180034.0 -0.7996311783790588
558024.0 180054.0 2.293750047683716
557804.0 180074.0 13.567700386047363
557804.0 180094.0 13.429235458374023
557804.0 180114.0 13.17593765258789
557824.0 180114.0 13.275938034057617
557844.0 180114.0 13.20199966430664
557864.0 180114.0 13.17137336730957
557864.0 180134.0 10.5
557884.0 180134.0 11.613750457763672
557904.0 180134.0 13.2396879196167
557904.0 180154.0 10.5
557924.0 180154.0 13.151718139648438
557924.0 180174.0 10.5
557944.0 180174.0 13.207144737243652
557944.0 180194.0 10.267725944519043
557964.0 180194.0 9.938542366027832
557984.0 180214.0 10.445584297180176
558004.0 180214.0 14.4179048538208
558024.0 180074.0 5.696875095367432
558004.0 180234.0 11.526817321777344
558024.0 180234.0 16.061126708984375
558044.0 180074.0 1.4670000076293945
558044.0 180094.0 4.170781135559082
558044.0 180114.0 6.491000175476074
558024.0 180254.0 15.108436584472656
558044.0 180254.0 17.720008850097656
558064.0 180114.0 2.1415624618530273
558064.0 180134.0 3.6570000648498535
558064.0 180154.0 9.654531478881836
558064.0 180254.0 19.547447204589844
558084.0 180154.0 3.5307812690734863
558084.0 180174.0 9.501999855041504
558084.0 180254.0 20.66358184814453
558104.0 180174.0 4.026000022888184
558084.0 180274.0 18.563594818115234
558104.0 180274.0 19.003000259399414
558124.0 180174.0 2.3028125762939453
558124.0 180194.0 7.161874771118164
558124.0 180274.0 19.11466407775879
558144.0 180194.0 3.5290000438690186
558124.0 180294.0 17.611000061035156
558144.0 180294.0 18.014999389648438
558164.0 180194.0 2.6546876430511475
558164.0 180294.0 18.777000427246094
558184.0 180194.0 2.2860000133514404
558164.0 180314.0 17.39699935913086
558184.0 180314.0 18.9609375
558204.0 180194.0 2.247999906539917
558184.0 180334.0 17.07890510559082
558204.0 180334.0 20.20400047302246
558224.0 180194.0 2.447812557220459
558204.0 180354.0 19.604000091552734
558224.0 180354.0 23.127811431884766
558244.0 180354.0 24.76187515258789
558264.0 180194.0 1.7990410327911377
558284.0 180194.0 2.223749876022339
558264.0 180354.0 24.66200065612793
558284.0 180354.0 24.33799934387207
558304.0 180174.0 2.2337498664855957
558304.0 180334.0 23.823999404907227
558324.0 180154.0 2.146235227584839
558324.0 180334.0 24.756999969482422
558344.0 180154.0 2.619999885559082
558344.0 180314.0 25.41200065612793
558364.0 180154.0 2.1915626525878906
558364.0 180314.0 26.783000946044922
558384.0 180154.0 2.322999954223633
558384.0 180314.0 27.325780868530273
558404.0 180154.0 2.515937328338623
558404.0 180314.0 25.982999801635742
558424.0 180154.0 1.917812466621399
558424.0 180174.0 8.616999626159668
558424.0 180314.0 26.063594818115234
558444.0 180174.0 4.815625190734863
558444.0 180314.0 26.056875228881836
558464.0 180174.0 2.4489998817443848
558464.0 180194.0 7.783999919891357
558464.0 180314.0 24.568904876708984
558484.0 180194.0 4.965000152587891
558484.0 180314.0 23.535781860351562
558504.0 180194.0 2.781562566757202
558504.0 180314.0 24.707000732421875
558524.0 180314.0 26.726999282836914
558544.0 180214.0 3.497999906539917
558544.0 180314.0 27.94700050354004
558564.0 180214.0 3.3489999771118164
558584.0 180214.0 2.8949999809265137
558544.0 180334.0 27.670625686645508
558564.0 180334.0 28.575937271118164
558564.0 180354.0 28.669530868530273
558584.0 180354.0 29.14781379699707
558604.0 180214.0 2.3745312690734863
558604.0 180354.0 29.385936737060547
558624.0 180214.0 1.6368978023529053
558624.0 180354.0 29.91200065612793
558644.0 180214.0 -1.1173577308654785
558644.0 180354.0 29.97800064086914
558664.0 180214.0 -0.47582754492759705
558664.0 180354.0 29.013999938964844
558684.0 180214.0 0.629178524017334
558684.0 180354.0 28.711999893188477
558704.0 180214.0 0.9896256327629089
558704.0 180234.0 3.128999948501587
558684.0 180374.0 28.45199966430664
558704.0 180374.0 27.95199966430664
558724.0 180234.0 2.446718692779541
558724.0 180374.0 27.625999450683594
558744.0 180234.0 1.8845312595367432
558744.0 180254.0 4.0370001792907715
558744.0 180374.0 27.238000869750977
558764.0 180254.0 2.808906316757202
558764.0 180374.0 26.154844284057617
558784.0 180254.0 1.981303095817566
558764.0 180394.0 26.05453109741211
558784.0 180394.0 25.464000701904297
558804.0 180254.0 1.1436383724212646
558804.0 180394.0 24.944843292236328
558824.0 180254.0 1.14706552028656
558824.0 180274.0 3.348749876022339
558824.0 180394.0 23.766876220703125
558844.0 180274.0 3.1459999084472656
558824.0 180414.0 24.11400032043457
558844.0 180414.0 23.56281089782715
558864.0 180274.0 3.4839062690734863
558864.0 180294.0 6.254000186920166
558884.0 180294.0 4.593999862670898
558864.0 180414.0 22.62468719482422
558864.0 180434.0 23.440780639648438
558884.0 180434.0 22.600624084472656
558904.0 180294.0 4.498000144958496
558884.0 180454.0 23.52375030517578
558904.0 180454.0 23.724000930786133
558924.0 180294.0 4.50600004196167
558904.0 180474.0 23.760936737060547
558904.0 180494.0 22.274999618530273
558904.0 180514.0 20.902000427246094
558924.0 180514.0 20.327999114990234
558944.0 180294.0 5.020999908447266
558924.0 180534.0 19.516000747680664
558944.0 180534.0 18.72800064086914
558964.0 180294.0 5.758645534515381
558964.0 180534.0 17.7645320892334
558984.0 180294.0 5.4521803855896
558964.0 180554.0 18.013999938964844
558984.0 180554.0 17.5
559004.0 180294.0 5.1588358879089355
558984.0 180574.0 17.899999618530273
559004.0 180574.0 17.5
559024.0 180294.0 4.081070423126221
559004.0 180594.0 17.799999237060547
559024.0 180594.0 17.299999237060547
559044.0 180294.0 2.4467599391937256
559024.0 180614.0 17.625999450683594
559024.0 180634.0 17.926000595092773
559024.0 180654.0 18.176000595092773
559024.0 180674.0 18.350000381469727
559044.0 180674.0 18.049999237060547
559064.0 180294.0 1.791866421699524
559044.0 180694.0 18.36199951171875
559044.0 180714.0 18.761999130249023
559064.0 180714.0 18.562000274658203
559084.0 180294.0 3.564444065093994
559064.0 180734.0 18.86199951171875
559084.0 180734.0 18.042999267578125
559104.0 180294.0 3.9163577556610107
559084.0 180754.0 18.0457820892334
559104.0 180754.0 16.851999282836914
559124.0 180294.0 3.114511489868164
559124.0 180314.0 4.697999954223633
559104.0 180774.0 17.139999389648438
559124.0 180774.0 18.435781478881836
559144.0 180314.0 3.4930219650268555
559144.0 180334.0 5.1620001792907715
559124.0 180794.0 18.759531021118164
559144.0 180794.0 19.100000381469727
559164.0 180334.0 4.067203044891357
559164.0 180354.0 5.67453145980835
559184.0 180354.0 4.555673599243164
559184.0 180434.0 10.682466506958008
559184.0 180454.0 12.755000114440918
559184.0 180474.0 13.3100004196167
559184.0 180494.0 14.271875381469727
559184.0 180514.0 14.897656440734863
559184.0 180534.0 15.197656631469727
559184.0 180554.0 15.49765682220459
559184.0 180574.0 15.697656631469727
559144.0 180814.0 19.33578109741211
559164.0 180814.0 19.625999450683594
559184.0 180814.0 19.377506256103516
559204.0 180354.0 0.8340949416160583
559204.0 180374.0 5.898593425750732
559204.0 180394.0 7.298593997955322
559204.0 180414.0 8.871999740600586
559204.0 180574.0 16.447500228881836
559204.0 180594.0 16.373594284057617
559204.0 180634.0 15.911718368530273
559204.0 180654.0 15.721718788146973
559204.0 180814.0 18.91139793395996
559224.0 180594.0 16.911718368530273
559224.0 180614.0 16.611719131469727
559224.0 180654.0 16.2237491607666
559224.0 180814.0 18.44445037841797
559244.0 180654.0 16.54984474182129
559244.0 180814.0 17.97459602355957
559264.0 180654.0 17.173593521118164
559264.0 180674.0 17.111000061035156
559264.0 180814.0 18.79472541809082
559284.0 180674.0 17.947500228881836
559284.0 180694.0 18.071563720703125
559284.0 180714.0 18.3096866607666
559284.0 180734.0 18.535781860351562
559284.0 180754.0 18.63578224182129
559284.0 180774.0 18.773906707763672
559284.0 180794.0 19.0859375
557404.0 179174.0 7.598999977111816
557424.0 179174.0 8.361000061035156
557404.0 179194.0 6.837500095367432
557424.0 179194.0 7.611000061035156
557404.0 179214.0 6.210999965667725
557424.0 179214.0 6.910999774932861
557404.0 179234.0 5.549530982971191
557424.0 179234.0 6.237500190734863
557404.0 179254.0 5.061562538146973
557424.0 179254.0 5.599687576293945
557424.0 179154.0 9.16100025177002
557444.0 179154.0 9.9375
557444.0 179174.0 9.199000358581543
557444.0 179194.0 8.39900016784668
557444.0 179214.0 7.611000061035156
557444.0 179234.0 7.098999977111816
557444.0 179254.0 6.5970001220703125
557464.0 179174.0 9.9375
557464.0 179194.0 9.361000061035156
557464.0 179214.0 8.67300033569336
557464.0 179234.0 8.085000038146973
557464.0 179254.0 7.646999835968018
557484.0 179174.0 10.47152042388916
557484.0 179194.0 9.775222778320312
557484.0 179214.0 9.22282600402832
557484.0 179234.0 8.45072078704834
557484.0 179254.0 7.992398738861084
557504.0 179214.0 9.722620010375977
557504.0 179234.0 8.926163673400879
557504.0 179254.0 8.173620223999023
557524.0 179234.0 9.425957679748535
557524.0 179254.0 8.733827590942383
557404.0 179274.0 4.623000144958496
557424.0 179274.0 5.422999858856201
557404.0 179294.0 4.172999858856201
557424.0 179294.0 5.085000038146973
557404.0 179314.0 3.759000062942505
557424.0 179314.0 4.784999847412109
557404.0 179334.0 3.384999990463257
557424.0 179334.0 4.385000228881836
557404.0 179354.0 2.9110000133514404
557424.0 179354.0 4.046999931335449
557404.0 179374.0 2.4119977951049805
557424.0 179374.0 3.7522854804992676
557444.0 179274.0 6.235000133514404
557444.0 179294.0 5.997000217437744
557444.0 179314.0 5.784999847412109
557444.0 179334.0 5.485000133514404
557444.0 179354.0 5.158999919891357
557444.0 179374.0 4.859000205993652
557424.0 179394.0 3.4055449962615967
557444.0 179394.0 4.485000133514404
557464.0 179274.0 7.11899995803833
557464.0 179294.0 7.059000015258789
557464.0 179314.0 6.796999931335449
557464.0 179334.0 6.559000015258789
557464.0 179354.0 6.284999847412109
557464.0 179374.0 6.046999931335449
557464.0 179394.0 5.585000038146973
557444.0 179414.0 4.060261249542236
557464.0 179414.0 5.184999942779541
557484.0 179274.0 7.794825553894043
557484.0 179294.0 7.726583480834961
557484.0 179314.0 7.402082920074463
557484.0 179334.0 7.282955169677734
557484.0 179354.0 7.142684459686279
557484.0 179374.0 7.034270286560059
557484.0 179394.0 6.672999858856201
557484.0 179414.0 6.172999858856201
557464.0 179434.0 4.784999847412109
557484.0 179434.0 5.758999824523926
557464.0 179454.0 4.050853252410889
557484.0 179454.0 5.459000110626221
557504.0 179274.0 8.150786399841309
557504.0 179294.0 7.5869855880737305
557504.0 179314.0 7.264573097229004
557504.0 179334.0 7.199169158935547
557504.0 179354.0 7.066181659698486
557504.0 179374.0 6.928806304931641
557504.0 179394.0 6.726553916931152
557504.0 179414.0 6.39154052734375
557504.0 179434.0 6.262246608734131
557504.0 179454.0 6.058564186096191
557484.0 179474.0 5.085000038146973
557504.0 179474.0 5.8219499588012695
557484.0 179494.0 4.784999847412109
557504.0 179494.0 5.535171985626221
557484.0 179514.0 4.459000110626221
557504.0 179514.0 5.362725257873535
557484.0 179534.0 4.197000026702881
557504.0 179534.0 5.153477191925049
557484.0 179554.0 3.984999895095825
557504.0 179554.0 4.985000133514404
557484.0 179574.0 3.684999942779541
557504.0 179574.0 4.5970001220703125
557524.0 179274.0 8.030896186828613
557524.0 179294.0 7.405040740966797
557524.0 179454.0 6.222751140594482
557524.0 179474.0 6.0408616065979
557524.0 179494.0 5.792880535125732
557524.0 179514.0 5.622930526733398
557524.0 179534.0 5.366456985473633
557524.0 179554.0 5.145092010498047
557524.0 179574.0 4.8469319343566895
557504.0 179594.0 4.284999847412109
557524.0 179594.0 4.677082061767578
557504.0 179614.0 3.884999990463257
557524.0 179614.0 4.28464937210083
557504.0 179634.0 3.311000108718872
557524.0 179634.0 4.3632073402404785
557544.0 179494.0 6.050588607788086
557544.0 179514.0 5.8511247634887695
557544.0 179534.0 5.526062965393066
557544.0 179554.0 5.2465105056762695
557544.0 179574.0 4.939302921295166
557544.0 179594.0 4.72039270401001
557544.0 179614.0 4.208684921264648
557544.0 179634.0 4.56942081451416
557524.0 179654.0 3.872999906539917
557544.0 179654.0 4.873000144958496
557564.0 179514.0 6.066626071929932
557564.0 179534.0 5.685668468475342
557564.0 179554.0 5.347928524017334
557564.0 179574.0 5.031673908233643
557564.0 179594.0 4.667815685272217
557564.0 179614.0 4.184473991394043
557564.0 179634.0 4.470901012420654
557564.0 179654.0 4.6500701904296875
557544.0 179674.0 4.2729997634887695
557564.0 179674.0 4.5487141609191895
557584.0 179554.0 5.441161632537842
557584.0 179574.0 5.124044895172119
557584.0 179594.0 4.615238666534424
557584.0 179614.0 4.138321876525879
557584.0 179634.0 3.625263214111328
557584.0 179654.0 3.4259936809539795
557584.0 179674.0 3.5898072719573975
557564.0 179694.0 2.8476037979125977
557584.0 179694.0 1.1303361654281616
557604.0 179614.0 6.256205081939697
557604.0 179634.0 4.315485000610352
557604.0 179654.0 4.428987979888916
557604.0 179674.0 4.657783508300781
557604.0 179694.0 4.526891231536865
557624.0 179654.0 6.497341156005859
557624.0 179674.0 6.506185054779053
557624.0 179694.0 5.893940448760986
557604.0 179714.0 -1.7183949947357178
557624.0 179714.0 2.136240243911743
557644.0 179674.0 8.227178573608398
557644.0 179694.0 6.828999996185303
557644.0 179714.0 4.112812519073486
557664.0 179674.0 8.927000045776367
557664.0 179694.0 7.103000164031982
557664.0 179714.0 4.790999889373779
557684.0 179694.0 7.355625152587891
557684.0 179714.0 5.055624961853027
557704.0 179714.0 5.117500305175781
557704.0 179694.0 7.640999794006348
557424.0 179134.0 9.737500190734863
557444.0 179134.0 10.399687767028809
557464.0 179134.0 10.711718559265137
557464.0 179154.0 10.52299976348877
557484.0 179154.0 10.822505950927734
557504.0 179154.0 10.915994644165039
557504.0 179174.0 10.703429222106934
557504.0 179194.0 10.185751914978027
557524.0 179194.0 10.596281051635742
557524.0 179214.0 10.222414016723633
557544.0 179214.0 10.722208023071289
557544.0 179234.0 10.349090576171875
557544.0 179254.0 8.875903129577637
557384.0 179354.0 1.5630728006362915
557384.0 179394.0 0.166453018784523
557404.0 179394.0 1.8115286827087402
557404.0 179414.0 0.7750554084777832
557424.0 179414.0 2.5088744163513184
557424.0 179434.0 1.2538079023361206
557444.0 179434.0 2.774421453475952
557444.0 179454.0 1.7666388750076294
557444.0 179474.0 -0.9569063782691956
557464.0 179474.0 1.0644042491912842
557464.0 179494.0 1.2652781009674072
557464.0 179514.0 2.337536096572876
557464.0 179534.0 2.3215622901916504
557464.0 179554.0 2.264033317565918
557464.0 179574.0 1.685518741607666
557464.0 179594.0 1.1533000469207764
557484.0 179594.0 3.2755255699157715
557484.0 179614.0 2.843148946762085
557484.0 179634.0 2.484114170074463
557484.0 179654.0 1.767077088356018
557504.0 179654.0 2.5497000217437744
557524.0 179314.0 7.143484592437744
557524.0 179334.0 7.115382671356201
557524.0 179354.0 6.9910807609558105
557524.0 179374.0 6.859004497528076
557524.0 179394.0 6.700530529022217
557524.0 179414.0 6.398223876953125
557524.0 179434.0 6.282104969024658
557504.0 179674.0 1.0703582763671875
557524.0 179674.0 2.880643367767334
557544.0 179274.0 7.810181617736816
557544.0 179294.0 7.2230963706970215
557544.0 179434.0 6.3019633293151855
557544.0 179454.0 6.286053657531738
557544.0 179474.0 6.298570156097412
557524.0 179694.0 0.46286740899086
557544.0 179694.0 1.8452435731887817
557564.0 179474.0 6.44509744644165
557564.0 179494.0 6.3082966804504395
557544.0 179714.0 -1.020493745803833
557564.0 179714.0 -0.5384777784347534
557584.0 179494.0 6.910041332244873
557584.0 179514.0 6.431889533996582
557584.0 179534.0 5.845274448394775
557584.0 179714.0 -2.6153712272644043
557604.0 179534.0 9.721882820129395
557604.0 179554.0 10.137666702270508
557604.0 179574.0 9.325735092163086
557604.0 179594.0 8.36596393585205
557584.0 179734.0 -6.2305192947387695
557604.0 179734.0 -7.397177696228027
557624.0 179594.0 8.323861122131348
557624.0 179614.0 9.903947830200195
557624.0 179634.0 6.898462772369385
557624.0 179734.0 -3.18076229095459
557644.0 179634.0 9.3523530960083
557644.0 179654.0 8.942322731018066
557644.0 179734.0 -0.7968031167984009
557664.0 179654.0 10.2027006149292
557684.0 179654.0 8.63304328918457
557684.0 179674.0 9.3149995803833
557664.0 179734.0 2.230562686920166
557684.0 179734.0 2.879687547683716
557704.0 179734.0 2.5275001525878906
557724.0 179694.0 8.53890609741211
557724.0 179674.0 8.085874557495117
557724.0 179714.0 6.164687633514404
557724.0 179734.0 3.448906183242798
557744.0 179694.0 8.924568176269531
557744.0 179714.0 8.25765609741211
557744.0 179734.0 5.535937309265137
557724.0 179754.0 1.8635936975479126
557744.0 179754.0 2.489000082015991
557764.0 179694.0 7.621021747589111
557764.0 179714.0 10.538593292236328
557764.0 179734.0 7.802000045776367
557764.0 179754.0 4.300000190734863
557784.0 179714.0 8.024996757507324
557784.0 179734.0 10.397812843322754
559184.0 179894.0 6.83984375
559204.0 179894.0 6.216000080108643
559184.0 179914.0 5.777968883514404
559204.0 179914.0 5.130000114440918
559224.0 179894.0 5.5920000076293945
559224.0 179874.0 6.3520002365112305
559224.0 179914.0 4.53000020980835
559204.0 180054.0 2.9880359172821045
559224.0 180034.0 3.632999897003174
559224.0 180054.0 4.1570000648498535
559244.0 179874.0 5.716000080108643
559244.0 179854.0 6.3420000076293945
559244.0 179894.0 4.966000080108643
559244.0 179914.0 4.177968502044678
559224.0 179934.0 2.9685938358306885
559264.0 179854.0 5.739999771118164
559264.0 179874.0 4.978000164031982
559264.0 179894.0 4.389999866485596
559284.0 179854.0 5.477968692779541
559284.0 179834.0 6.075937271118164
559284.0 179874.0 4.492000102996826
559184.0 180154.0 2.7856249809265137
559204.0 180154.0 3.373593807220459
559184.0 180174.0 2.711718797683716
559204.0 180134.0 3.573593854904175
559204.0 180174.0 3.1117188930511475
559184.0 180194.0 2.437812566757202
559204.0 180194.0 2.8996875286102295
559184.0 180214.0 2.137812614440918
559204.0 180214.0 2.573593854904175
559184.0 180234.0 1.8618749380111694
559204.0 180234.0 2.2615625858306885
559184.0 180254.0 1.75
559204.0 180254.0 2.09765625
559204.0 180074.0 3.434131383895874
559224.0 180074.0 4.408999919891357
559204.0 180094.0 3.6856250762939453
559224.0 180094.0 4.508999824523926
559204.0 180114.0 3.6856250762939453
559224.0 180114.0 4.434999942779541
559224.0 180134.0 4.235000133514404
559224.0 180154.0 3.961562395095825
559224.0 180174.0 3.5996875762939453
559224.0 180194.0 3.373593807220459
559224.0 180214.0 3.0996875762939453
559224.0 180234.0 2.799687623977661
559224.0 180254.0 2.573593854904175
559204.0 180274.0 2.0
559224.0 180274.0 2.3450000286102295
559204.0 180294.0 0.021515360102057457
559224.0 180294.0 2.1842570304870605
559244.0 180114.0 5.34499979019165
559244.0 180134.0 5.184999942779541
559244.0 180154.0 4.623000144958496
559244.0 180174.0 4.149531364440918
559244.0 180194.0 3.873593807220459
559244.0 180214.0 3.673593759536743
559244.0 180234.0 3.461562395095825
559244.0 180254.0 3.173593759536743
559244.0 180274.0 2.9117186069488525
559244.0 180294.0 2.723750114440918
559224.0 180314.0 0.2023119330406189
559244.0 180314.0 1.8648459911346436
559264.0 180174.0 4.922999858856201
559264.0 180194.0 4.635000228881836
559264.0 180214.0 4.361562252044678
559264.0 180234.0 4.061562538146973
559264.0 180254.0 3.7615625858306885
559264.0 180274.0 3.3996877670288086
559264.0 180294.0 3.01171875
559264.0 180314.0 2.7976560592651367
559284.0 180214.0 5.061562538146973
559284.0 180234.0 4.735000133514404
559284.0 180254.0 4.261562347412109
559284.0 180274.0 3.873593807220459
559284.0 180294.0 3.499687433242798
559284.0 180314.0 3.1996877193450928
559164.0 179914.0 6.125999927520752
559164.0 179934.0 5.453999996185303
559184.0 179934.0 4.4679999351501465
559184.0 179874.0 6.611999988555908
559204.0 179874.0 6.823750019073486
559204.0 179934.0 3.691999912261963
559224.0 179854.0 6.785624980926514
559204.0 179954.0 2.299687623977661
559224.0 179954.0 2.351875066757202
559204.0 179974.0 1.749843716621399
559224.0 179974.0 2.297656297683716
559204.0 179994.0 2.0595312118530273
559224.0 179994.0 2.659531354904175
559204.0 180014.0 2.2715625762939453
559224.0 180014.0 3.0096874237060547
559204.0 180034.0 2.6217188835144043
559244.0 179834.0 6.349999904632568
559244.0 179934.0 3.4375
559244.0 179954.0 3.046999931335449
559244.0 179974.0 3.1589062213897705
559244.0 179994.0 4.005000114440918
559244.0 180014.0 4.692968845367432
559244.0 180034.0 5.218999862670898
559244.0 180054.0 5.545000076293945
559264.0 179834.0 6.214000225067139
559264.0 179914.0 4.175937175750732
559284.0 179814.0 7.191719055175781
559284.0 179894.0 4.0
559304.0 179814.0 7.279687404632568
559304.0 179834.0 6.163906097412109
559304.0 179854.0 5.601718425750732
559304.0 179874.0 4.761562347412109
559164.0 180174.0 2.212944984436035
559164.0 180194.0 1.8385618925094604
559164.0 180214.0 1.5527735948562622
559164.0 180234.0 1.2263511419296265
559164.0 180254.0 0.5421411991119385
559164.0 180274.0 -1.6199142932891846
559184.0 180274.0 0.31556111574172974
559184.0 180074.0 3.149843692779541
559184.0 180094.0 3.223749876022339
559184.0 180114.0 3.0996875762939453
559184.0 180134.0 2.947000026702881
559184.0 180294.0 -2.225207567214966
559184.0 180314.0 -4.317296981811523
559204.0 180314.0 -1.8674352169036865
559204.0 180334.0 -3.7214019298553467
559224.0 180334.0 -1.849778652191162
559244.0 180074.0 5.732999801635742
559244.0 180094.0 5.658999919891357
559244.0 180334.0 -0.3845852017402649
559264.0 180094.0 7.008999824523926
559264.0 180114.0 6.709000110626221
559264.0 180134.0 6.296999931335449
559264.0 180154.0 5.560999870300293
559264.0 180334.0 0.9624328017234802
559284.0 180154.0 6.710999965667725
559284.0 180174.0 5.947000026702881
559284.0 180194.0 5.485000133514404
559284.0 180334.0 2.263309955596924
559304.0 180194.0 6.385000228881836
559304.0 180214.0 5.885000228881836
559304.0 180234.0 5.361562252044678
559304.0 180254.0 4.861562252044678
559304.0 180274.0 4.387656211853027
559304.0 180294.0 3.8996872901916504
559304.0 180314.0 3.51171875
557324.0 181974.0 13.475937843322754
557344.0 181954.0 13.875937461853027
557344.0 181974.0 13.475937843322754
557344.0 181934.0 14.337812423706055
557344.0 181894.0 13.642302513122559
557364.0 181894.0 13.706674575805664
557344.0 181914.0 13.057249069213867
557364.0 181914.0 12.872623443603516
557384.0 181894.0 14.350900650024414
557364.0 181934.0 14.375937461853027
557364.0 181954.0 13.963906288146973
557364.0 181974.0 13.413999557495117
557344.0 181994.0 12.987968444824219
557344.0 181874.0 14.2481689453125
557344.0 181854.0 14.947375297546387
557344.0 181834.0 15.100000381469727
557344.0 181814.0 15.187968254089355
557344.0 181794.0 15.199999809265137
557344.0 181774.0 15.199999809265137
557364.0 181854.0 15.090075492858887
557364.0 181874.0 14.405881881713867
557384.0 181874.0 14.895201683044434
557384.0 181914.0 14.67593765258789
557384.0 181934.0 14.375937461853027
557384.0 181954.0 13.951852798461914
557364.0 181994.0 13.0639066696167
557384.0 181974.0 13.51171875
557404.0 181874.0 14.987968444824219
557404.0 181894.0 14.800000190734863
557664.0 179914.0 4.047999858856201
557684.0 179914.0 3.6480000019073486
557664.0 179934.0 5.136000156402588
557644.0 179954.0 6.217007160186768
557664.0 179954.0 6.671000003814697
557684.0 179934.0 4.8979997634887695
557684.0 179954.0 6.122000217437744
557704.0 179934.0 4.883999824523926
557704.0 179954.0 6.257999897003174
557724.0 179934.0 4.883999824523926
557724.0 179914.0 3.421999931335449
557724.0 179954.0 6.357999801635742
557744.0 179914.0 3.299722194671631
557744.0 179934.0 4.895999908447266
557744.0 179954.0 6.458000183105469
557764.0 179914.0 2.8493828773498535
557764.0 179934.0 4.895999908447266
557764.0 179954.0 6.495999813079834
557784.0 179914.0 3.0578064918518066
557784.0 179934.0 4.734000205993652
557784.0 179954.0 6.446000099182129
557804.0 179914.0 2.7184319496154785
557804.0 179934.0 4.322656154632568
557464.0 181994.0 14.24984359741211
557484.0 181974.0 14.6498441696167
557484.0 181994.0 14.549843788146973
557484.0 181954.0 14.03455638885498
557504.0 181954.0 16.45659637451172
557504.0 181974.0 15.914828300476074
