558544.0 181634.0 -62.079341888427734
558544.0 181654.0 -62.972232818603516
558544.0 181674.0 -63.86512756347656
558544.0 181694.0 -64.75801849365234
558564.0 180894.0 -28.11948013305664
558564.0 180914.0 -29.039562225341797
558584.0 180894.0 -28.16766357421875
558564.0 180934.0 -29.959646224975586
558584.0 180914.0 -29.087745666503906
558564.0 180954.0 -30.879730224609375
558584.0 180934.0 -30.007829666137695
558564.0 180974.0 -31.79981231689453
558584.0 180954.0 -30.92791175842285
558564.0 180994.0 -32.71989440917969
558584.0 180974.0 -31.84799575805664
558564.0 181014.0 -33.63998031616211
558584.0 180994.0 -32.7680778503418
558564.0 181034.0 -34.560062408447266
558584.0 181014.0 -33.68815994262695
558564.0 181054.0 -35.48014450073242
558584.0 181034.0 -34.608245849609375
558564.0 181074.0 -36.40022659301758
558584.0 181054.0 -35.52832794189453
558564.0 181094.0 -37.3203125
558584.0 181074.0 -36.44841003417969
558564.0 181114.0 -38.240394592285156
558584.0 181094.0 -37.36849594116211
558564.0 181134.0 -39.16047668457031
558584.0 181114.0 -38.288578033447266
558564.0 181154.0 -40.08055877685547
558584.0 181134.0 -39.20866012573242
558564.0 181174.0 -41.00064468383789
558584.0 181154.0 -40.12874221801758
558564.0 181194.0 -41.92072677612305
558584.0 181174.0 -41.048828125
558564.0 181214.0 -42.8408088684082
558584.0 181194.0 -41.968910217285156
558564.0 181234.0 -43.76089096069336
558584.0 181214.0 -42.88899230957031
558564.0 181254.0 -44.68097686767578
558584.0 181254.0 -44.72916030883789
558584.0 181234.0 -43.80907440185547
558564.0 181274.0 -45.60105895996094
558564.0 181294.0 -46.521141052246094
558584.0 181274.0 -45.64924240112305
558564.0 181314.0 -47.441226959228516
558584.0 181294.0 -46.5693244934082
558564.0 181334.0 -48.36130905151367
558584.0 181314.0 -47.48940658569336
558564.0 181354.0 -49.28139114379883
558584.0 181334.0 -48.40949249267578
558564.0 181374.0 -50.201473236083984
558584.0 181354.0 -49.32957458496094
558564.0 181394.0 -51.121559143066406
558584.0 181374.0 -50.249656677246094
558564.0 181414.0 -52.04164123535156
558584.0 181394.0 -51.169742584228516
558564.0 181434.0 -52.96172332763672
558584.0 181414.0 -52.08982467651367
558564.0 181454.0 -53.881805419921875
558584.0 181434.0 -53.00990676879883
558564.0 181474.0 -54.8018913269043
558584.0 181454.0 -53.929988861083984
558564.0 181494.0 -55.72197341918945
558584.0 181474.0 -54.850074768066406
558564.0 181514.0 -56.64205551147461
558584.0 181494.0 -55.77015686035156
558564.0 181534.0 -57.562137603759766
558584.0 181514.0 -56.69023895263672
558564.0 181554.0 -58.48222351074219
558584.0 181534.0 -57.610321044921875
558564.0 181574.0 -59.3985595703125
558584.0 181554.0 -58.503562927246094
558564.0 181594.0 -60.29145050048828
558584.0 181574.0 -59.396453857421875
558564.0 181614.0 -61.18434524536133
558584.0 181594.0 -60.28934860229492
558564.0 181634.0 -62.07723617553711
558584.0 181614.0 -61.18224334716797
558564.0 181654.0 -62.970130920410156
558584.0 181634.0 -62.07513427734375
558564.0 181674.0 -63.86302185058594
558584.0 181654.0 -62.9680290222168
558564.0 181694.0 -64.75592041015625
558584.0 181674.0 -63.86091995239258
558584.0 181694.0 -64.75381469726562
558604.0 180894.0 -28.21584701538086
558604.0 180914.0 -29.135929107666016
558604.0 180934.0 -30.056013107299805
558604.0 180954.0 -30.97609519958496
558604.0 180974.0 -31.89617919921875
558604.0 180994.0 -32.816261291503906
558604.0 181014.0 -33.73634338378906
558604.0 181034.0 -34.656429290771484
558604.0 181054.0 -35.57651138305664
558604.0 181074.0 -36.4965934753418
558604.0 181094.0 -37.41667556762695
558604.0 181114.0 -38.336761474609375
558604.0 181134.0 -39.25684356689453
558604.0 181154.0 -40.17692565917969
558604.0 181174.0 -41.09701156616211
558604.0 181194.0 -42.017093658447266
558604.0 181214.0 -42.93717575073242
558604.0 181254.0 -44.77734375
558604.0 181234.0 -43.85725784301758
558604.0 181274.0 -45.697425842285156
558604.0 181294.0 -46.61750793457031
558604.0 181314.0 -47.53759002685547
558604.0 181334.0 -48.45767593383789
558604.0 181354.0 -49.37775802612305
558604.0 181374.0 -50.2978401184082
558604.0 181394.0 -51.21792221069336
558604.0 181414.0 -52.13800811767578
558604.0 181434.0 -53.05809020996094
558604.0 181454.0 -53.978172302246094
558604.0 181474.0 -54.898258209228516
558604.0 181494.0 -55.81834030151367
558604.0 181514.0 -56.71567153930664
558604.0 181534.0 -57.60856628417969
558604.0 181554.0 -58.501461029052734
558604.0 181574.0 -59.394351959228516
558604.0 181594.0 -60.28724670410156
558604.0 181614.0 -61.180137634277344
558604.0 181634.0 -62.07303237915039
558604.0 181654.0 -62.96592330932617
558604.0 181674.0 -63.85881805419922
558604.0 181694.0 -64.751708984375
558624.0 180894.0 -28.26403045654297
558624.0 180914.0 -29.184112548828125
558624.0 180934.0 -30.104196548461914
558624.0 180954.0 -31.02427864074707
558624.0 180974.0 -31.94436264038086
558624.0 180994.0 -32.864444732666016
558624.0 181014.0 -33.78452682495117
558624.0 181034.0 -34.704612731933594
558624.0 181054.0 -35.62469482421875
558624.0 181074.0 -36.544776916503906
558624.0 181094.0 -37.46485900878906
558624.0 181114.0 -38.384944915771484
558624.0 181134.0 -39.30502700805664
558624.0 181154.0 -40.2251091003418
558624.0 181174.0 -41.14519119262695
558624.0 181194.0 -42.065277099609375
558624.0 181214.0 -42.98535919189453
558624.0 181254.0 -44.82552719116211
558624.0 181234.0 -43.90544128417969
558624.0 181274.0 -45.745609283447266
558624.0 181294.0 -46.66569137573242
558624.0 181314.0 -47.58577346801758
558624.0 181334.0 -48.505859375
558624.0 181354.0 -49.425941467285156
558624.0 181374.0 -50.34602355957031
558624.0 181394.0 -51.26610565185547
558624.0 181414.0 -52.18619155883789
558624.0 181434.0 -53.10627365112305
558624.0 181454.0 -54.0263557434082
558624.0 181474.0 -54.92778396606445
558624.0 181494.0 -55.8206787109375
558624.0 181514.0 -56.71356964111328
558624.0 181534.0 -57.60646438598633
558624.0 181554.0 -58.49935531616211
558624.0 181574.0 -59.392250061035156
558624.0 181594.0 -60.28514099121094
558624.0 181614.0 -61.178035736083984
558624.0 181634.0 -62.070926666259766
558624.0 181654.0 -62.96382141113281
558624.0 181674.0 -63.85671615600586
558624.0 181694.0 -64.7496109008789
558644.0 180894.0 -28.312211990356445
558644.0 180914.0 -29.232295989990234
558644.0 180934.0 -30.15237808227539
558644.0 180954.0 -31.07246208190918
558644.0 180974.0 -31.99254608154297
558644.0 180994.0 -32.912628173828125
558644.0 181014.0 -33.83271026611328
558644.0 181034.0 -34.7527961730957
558644.0 181054.0 -35.67287826538086
558644.0 181074.0 -36.592960357666016
558644.0 181094.0 -37.51304244995117
558644.0 181114.0 -38.433128356933594
558644.0 181134.0 -39.35321044921875
558644.0 181154.0 -40.273292541503906
558644.0 181174.0 -41.19337463378906
558644.0 181194.0 -42.113460540771484
558644.0 181214.0 -43.03354263305664
558644.0 181254.0 -44.87370681762695
558644.0 181234.0 -43.9536247253418
558644.0 181274.0 -45.793792724609375
558644.0 181294.0 -46.71387481689453
558644.0 181314.0 -47.63395690917969
558644.0 181334.0 -48.55404281616211
558644.0 181354.0 -49.474124908447266
558644.0 181374.0 -50.39420700073242
558644.0 181394.0 -51.31428909301758
558644.0 181414.0 -52.234375
558644.0 181434.0 -53.139896392822266
558644.0 181454.0 -54.03278732299805
558644.0 181474.0 -54.925682067871094
558644.0 181494.0 -55.818572998046875
558644.0 181514.0 -56.71146774291992
558644.0 181534.0 -57.6043586730957
558644.0 181554.0 -58.49725341796875
558644.0 181574.0 -59.3901481628418
558644.0 181594.0 -60.28303909301758
558644.0 181614.0 -61.175933837890625
558644.0 181634.0 -62.068824768066406
558644.0 181654.0 -62.96171951293945
558644.0 181674.0 -63.854610443115234
558644.0 181694.0 -64.74750518798828
558664.0 180894.0 -28.360395431518555
558664.0 180914.0 -29.280479431152344
558664.0 180934.0 -30.2005615234375
558664.0 180954.0 -31.12064552307129
558664.0 180974.0 -32.04072952270508
558664.0 180994.0 -32.960811614990234
558664.0 181014.0 -33.88089370727539
558664.0 181034.0 -34.80097961425781
558664.0 181054.0 -35.72106170654297
558664.0 181074.0 -36.641143798828125
558664.0 181094.0 -37.56122589111328
558664.0 181114.0 -38.4813117980957
558664.0 181134.0 -39.40139389038086
558664.0 181154.0 -40.321475982666016
558664.0 181174.0 -41.24155807495117
558664.0 181194.0 -42.161643981933594
558664.0 181214.0 -43.08172607421875
558664.0 181254.0 -44.92189025878906
558664.0 181234.0 -44.001808166503906
558664.0 181274.0 -45.841976165771484
558664.0 181294.0 -46.76205825805664
558664.0 181314.0 -47.6821403503418
558664.0 181334.0 -48.60222625732422
558664.0 181354.0 -49.522308349609375
558664.0 181374.0 -50.44239044189453
558664.0 181394.0 -51.35200500488281
558664.0 181414.0 -52.24489974975586
558664.0 181434.0 -53.13779067993164
558664.0 181454.0 -54.03068542480469
558664.0 181474.0 -54.92357635498047
558664.0 181494.0 -55.816471099853516
558664.0 181514.0 -56.70936584472656
558664.0 181534.0 -57.602256774902344
558664.0 181554.0 -58.49515151977539
558664.0 181574.0 -59.38804244995117
558664.0 181594.0 -60.28093719482422
558664.0 181614.0 -61.173828125
558664.0 181634.0 -62.06672286987305
558664.0 181654.0 -62.95961380004883
558664.0 181674.0 -63.852508544921875
558664.0 181694.0 -64.74539947509766
558684.0 180894.0 -28.408578872680664
558684.0 180914.0 -29.328662872314453
558684.0 180934.0 -30.24874496459961
558684.0 180954.0 -31.1688289642334
558684.0 180974.0 -32.08891296386719
558684.0 180994.0 -33.008995056152344
558684.0 181014.0 -33.9290771484375
558684.0 181034.0 -34.849159240722656
558684.0 181054.0 -35.76924514770508
558684.0 181074.0 -36.689327239990234
558684.0 181094.0 -37.60940933227539
558684.0 181114.0 -38.52949523925781
558684.0 181134.0 -39.44957733154297
558684.0 181154.0 -40.369659423828125
558684.0 181174.0 -41.28974151611328
558684.0 181194.0 -42.2098274230957
558684.0 181214.0 -43.12990951538086
558684.0 181254.0 -44.97007369995117
558684.0 181234.0 -44.049991607666016
558684.0 181274.0 -45.890159606933594
558684.0 181294.0 -46.81024169921875
558684.0 181314.0 -47.730323791503906
558684.0 181334.0 -48.65040588378906
558684.0 181354.0 -49.564117431640625
558684.0 181374.0 -50.457008361816406
558684.0 181394.0 -51.34990310668945
558684.0 181414.0 -52.242794036865234
558684.0 181434.0 -53.13568878173828
558684.0 181454.0 -54.02858352661133
558684.0 181474.0 -54.92147445678711
558684.0 181494.0 -55.814369201660156
558684.0 181514.0 -56.70726013183594
558684.0 181534.0 -57.600154876708984
558684.0 181554.0 -58.493045806884766
558684.0 181574.0 -59.38594055175781
558684.0 181594.0 -60.278831481933594
558684.0 181614.0 -61.17172622680664
558684.0 181634.0 -62.06462097167969
558684.0 181654.0 -62.95751190185547
558684.0 181674.0 -63.850406646728516
558684.0 181694.0 -64.74330139160156
558704.0 180894.0 -28.456762313842773
558704.0 180914.0 -29.376846313476562
558704.0 180934.0 -30.29692840576172
558704.0 180954.0 -31.217012405395508
558704.0 180974.0 -32.1370964050293
558704.0 180994.0 -33.05717849731445
558704.0 181014.0 -33.97726058959961
558704.0 181034.0 -34.897342681884766
558704.0 181054.0 -35.81742858886719
558704.0 181074.0 -36.737510681152344
558704.0 181094.0 -37.6575927734375
558704.0 181114.0 -38.577674865722656
558704.0 181134.0 -39.49776077270508
558704.0 181154.0 -40.417842864990234
558704.0 181174.0 -41.33792495727539
558704.0 181194.0 -42.25801086425781
558704.0 181214.0 -43.17809295654297
558704.0 181234.0 -44.098175048828125
558704.0 181254.0 -45.01825714111328
558704.0 181274.0 -45.9383430480957
558704.0 181294.0 -46.85842514038086
558704.0 181314.0 -47.77622604370117
558704.0 181334.0 -48.66912078857422
558704.0 181354.0 -49.562015533447266
558704.0 181374.0 -50.45490646362305
558704.0 181394.0 -51.347801208496094
558704.0 181414.0 -52.240692138671875
558704.0 181434.0 -53.13358688354492
558704.0 181454.0 -54.0264778137207
558704.0 181474.0 -54.91937255859375
558704.0 181494.0 -55.81226348876953
558704.0 181514.0 -56.70515823364258
558704.0 181534.0 -57.598052978515625
558704.0 181554.0 -58.490943908691406
558704.0 181574.0 -59.38383865356445
558704.0 181594.0 -60.276729583740234
558704.0 181614.0 -61.16962432861328
558704.0 181634.0 -62.06251525878906
558704.0 181654.0 -62.95541000366211
558704.0 181674.0 -63.84830093383789
558704.0 181694.0 -64.74119567871094
558724.0 180894.0 -28.504945755004883
558724.0 180914.0 -29.42502784729004
558724.0 180934.0 -30.345111846923828
558724.0 180954.0 -31.265195846557617
558724.0 180974.0 -32.185279846191406
558724.0 180994.0 -33.10536193847656
558724.0 181014.0 -34.02544403076172
558724.0 181034.0 -34.945526123046875
558724.0 181054.0 -35.8656120300293
558724.0 181074.0 -36.78569412231445
558724.0 181094.0 -37.70577621459961
558724.0 181114.0 -38.625858306884766
558724.0 181134.0 -39.54594421386719
558724.0 181154.0 -40.466026306152344
558724.0 181174.0 -41.3861083984375
558724.0 181194.0 -42.306190490722656
558724.0 181214.0 -43.22627639770508
558724.0 181234.0 -44.146358489990234
558724.0 181254.0 -45.06644058227539
558724.0 181274.0 -45.98652648925781
558724.0 181294.0 -46.88123321533203
558724.0 181314.0 -47.77412414550781
558724.0 181334.0 -48.66701889038086
558724.0 181354.0 -49.55990982055664
558724.0 181374.0 -50.45280456542969
558724.0 181394.0 -51.34569549560547
558724.0 181414.0 -52.238590240478516
558724.0 181434.0 -53.1314811706543
558724.0 181454.0 -54.024375915527344
558724.0 181474.0 -54.91727066040039
558724.0 181494.0 -55.81016159057617
558724.0 181514.0 -56.70305633544922
558724.0 181534.0 -57.595947265625
558724.0 181554.0 -58.48884201049805
558724.0 181574.0 -59.38173294067383
558724.0 181594.0 -60.274627685546875
558724.0 181614.0 -61.167518615722656
558724.0 181634.0 -62.0604133605957
558724.0 181654.0 -62.95330810546875
558724.0 181674.0 -63.84619903564453
558724.0 181694.0 -64.73908996582031
558744.0 180894.0 -28.553129196166992
558744.0 180914.0 -29.47321128845215
558744.0 180934.0 -30.393295288085938
558744.0 180954.0 -31.313377380371094
558744.0 180974.0 -32.23345947265625
558744.0 180994.0 -33.15354537963867
558744.0 181014.0 -34.07362747192383
558744.0 181034.0 -34.993709564208984
558744.0 181054.0 -35.913795471191406
558744.0 181074.0 -36.83387756347656
558744.0 181094.0 -37.75395965576172
558744.0 181114.0 -38.674041748046875
558744.0 181134.0 -39.5941276550293
558744.0 181154.0 -40.51420974731445
558744.0 181174.0 -41.43429183959961
558744.0 181194.0 -42.354373931884766
558744.0 181214.0 -43.27445983886719
558744.0 181234.0 -44.194541931152344
558744.0 181254.0 -45.09334182739258
558744.0 181274.0 -45.986236572265625
558744.0 181294.0 -46.879127502441406
558744.0 181314.0 -47.77202224731445
558744.0 181334.0 -48.664913177490234
558744.0 181354.0 -49.55780792236328
558744.0 181374.0 -50.45069885253906
558744.0 181394.0 -51.34359359741211
558744.0 181414.0 -52.236488342285156
558744.0 181434.0 -53.12937927246094
558744.0 181454.0 -54.022274017333984
558744.0 181474.0 -54.915164947509766
558744.0 181494.0 -55.80805969238281
558744.0 181514.0 -56.700950622558594
558744.0 181534.0 -57.59384536743164
558744.0 181554.0 -58.48673629760742
558744.0 181574.0 -59.37963104248047
558744.0 181594.0 -60.272525787353516
558744.0 181614.0 -61.1654167175293
558744.0 181634.0 -62.058311462402344
558744.0 181654.0 -62.951202392578125
558744.0 181674.0 -63.84409713745117
558744.0 181694.0 -64.73699188232422
558764.0 180894.0 -28.6013126373291
558764.0 180914.0 -29.521394729614258
558764.0 180934.0 -30.441478729248047
558764.0 180954.0 -31.361560821533203
558764.0 180974.0 -32.28164291381836
558764.0 180994.0 -33.20172882080078
558764.0 181014.0 -34.12181091308594
558764.0 181034.0 -35.041893005371094
558764.0 181054.0 -35.96197509765625
558764.0 181074.0 -36.88206100463867
558764.0 181094.0 -37.80214309692383
558764.0 181114.0 -38.722225189208984
558764.0 181134.0 -39.642311096191406
558764.0 181154.0 -40.56239318847656
558764.0 181174.0 -41.48247528076172
558764.0 181194.0 -42.402557373046875
558764.0 181214.0 -43.30545425415039
558764.0 181234.0 -44.19834518432617
558764.0 181254.0 -45.09123992919922
558764.0 181274.0 -45.984130859375
558764.0 181294.0 -46.87702560424805
558764.0 181314.0 -47.769920349121094
558764.0 181334.0 -48.662811279296875
558764.0 181354.0 -49.55570602416992
558764.0 181374.0 -50.4485969543457
558764.0 181394.0 -51.34149169921875
558764.0 181414.0 -52.23438262939453
558764.0 181434.0 -53.12727737426758
558764.0 181454.0 -54.02016830444336
558764.0 181474.0 -54.913063049316406
558764.0 181494.0 -55.80595397949219
558764.0 181514.0 -56.698848724365234
558764.0 181534.0 -57.59174346923828
558764.0 181554.0 -58.48463439941406
558764.0 181574.0 -59.37752914428711
558764.0 181594.0 -60.27042007446289
558764.0 181614.0 -61.16331481933594
558764.0 181634.0 -62.05620574951172
558764.0 181654.0 -62.949100494384766
558764.0 181674.0 -63.84199142456055
558764.0 181694.0 -64.7348861694336
558784.0 180894.0 -28.64949607849121
558784.0 180914.0 -29.569578170776367
558784.0 180934.0 -30.489662170410156
558784.0 180954.0 -31.409744262695312
558784.0 180974.0 -32.32982635498047
558784.0 180994.0 -33.24991226196289
558784.0 181014.0 -34.16999435424805
558784.0 181034.0 -35.0900764465332
558784.0 181054.0 -36.01015853881836
558784.0 181074.0 -36.93024444580078
558784.0 181094.0 -37.85032653808594
558784.0 181114.0 -38.770408630371094
558784.0 181134.0 -39.69049072265625
558784.0 181154.0 -40.61057662963867
558784.0 181174.0 -41.51756286621094
558784.0 181194.0 -42.410457611083984
558784.0 181214.0 -43.303348541259766
558784.0 181234.0 -44.19624328613281
558784.0 181254.0 -45.08913803100586
558784.0 181274.0 -45.98202896118164
558784.0 181294.0 -46.87492370605469
558784.0 181314.0 -47.76781463623047
558784.0 181334.0 -48.660709381103516
558784.0 181354.0 -49.5536003112793
558784.0 181374.0 -50.446495056152344
558784.0 181394.0 -51.339385986328125
558784.0 181414.0 -52.23228073120117
558784.0 181434.0 -53.12517547607422
558784.0 181454.0 -54.01806640625
558784.0 181474.0 -54.91096115112305
558784.0 181494.0 -55.80385208129883
558784.0 181514.0 -56.696746826171875
558784.0 181534.0 -57.589637756347656
558784.0 181554.0 -58.4825325012207
558784.0 181574.0 -59.375423431396484
558784.0 181594.0 -60.26831817626953
558784.0 181614.0 -61.16121292114258
558784.0 181634.0 -62.05410385131836
558784.0 181654.0 -62.946998596191406
558784.0 181674.0 -63.83988952636719
558784.0 181694.0 -64.73278045654297
558804.0 180894.0 -28.697677612304688
558804.0 180914.0 -29.617761611938477
558804.0 180934.0 -30.537843704223633
558804.0 180954.0 -31.457927703857422
558804.0 180974.0 -32.37800979614258
558804.0 180994.0 -33.298095703125
558804.0 181014.0 -34.218177795410156
558804.0 181034.0 -35.13825988769531
558804.0 181054.0 -36.05834197998047
558804.0 181074.0 -36.97842788696289
558804.0 181094.0 -37.89850997924805
558804.0 181114.0 -38.8185920715332
558804.0 181134.0 -39.72967529296875
558804.0 181154.0 -40.62256622314453
558804.0 181174.0 -41.51546096801758
558804.0 181194.0 -42.408355712890625
558804.0 181214.0 -43.301246643066406
558804.0 181234.0 -44.19414138793945
558804.0 181254.0 -45.087032318115234
558804.0 181274.0 -45.97992706298828
558804.0 181294.0 -46.87281799316406
558804.0 181314.0 -47.76571273803711
558804.0 181334.0 -48.65860366821289
558804.0 181354.0 -49.55149841308594
558804.0 181374.0 -50.444393157958984
558804.0 181394.0 -51.337284088134766
558804.0 181414.0 -52.23017883300781
558804.0 181434.0 -53.123069763183594
558804.0 181454.0 -54.01596450805664
558804.0 181474.0 -54.90885543823242
558804.0 181494.0 -55.80175018310547
558804.0 181514.0 -56.69464111328125
558804.0 181534.0 -57.5875358581543
558804.0 181554.0 -58.480430603027344
558804.0 181574.0 -59.373321533203125
558804.0 181594.0 -60.26621627807617
558804.0 181614.0 -61.15910720825195
558804.0 181634.0 -62.052001953125
558804.0 181654.0 -62.94489288330078
558804.0 181674.0 -63.83778762817383
558804.0 181694.0 -64.73068237304688
558824.0 180894.0 -28.745861053466797
558824.0 180914.0 -29.665945053100586
558824.0 180934.0 -30.586027145385742
558824.0 180954.0 -31.50611114501953
558824.0 180974.0 -32.42619323730469
558824.0 180994.0 -33.346275329589844
558824.0 181014.0 -34.266361236572266
558824.0 181034.0 -35.18644332885742
558824.0 181054.0 -36.10652542114258
558824.0 181074.0 -37.026611328125
558824.0 181094.0 -37.94178771972656
558824.0 181114.0 -38.834678649902344
558824.0 181134.0 -39.72757339477539
558824.0 181154.0 -40.62046432495117
558824.0 181174.0 -41.51335906982422
558824.0 181194.0 -42.40625
558824.0 181214.0 -43.29914474487305
558824.0 181234.0 -44.19203567504883
558824.0 181254.0 -45.084930419921875
558824.0 181274.0 -45.977821350097656
558824.0 181294.0 -46.8707160949707
558824.0 181314.0 -47.76361083984375
558824.0 181334.0 -48.65650177001953
558824.0 181354.0 -49.54939651489258
558824.0 181374.0 -50.44228744506836
558824.0 181394.0 -51.335182189941406
558824.0 181414.0 -52.22807312011719
558824.0 181434.0 -53.120967864990234
558824.0 181454.0 -54.013858795166016
558824.0 181474.0 -54.90675354003906
558824.0 181494.0 -55.79964828491211
558824.0 181514.0 -56.69253921508789
558824.0 181534.0 -57.58543395996094
558824.0 181554.0 -58.47832489013672
558824.0 181574.0 -59.371219635009766
558824.0 181594.0 -60.26411056518555
558824.0 181634.0 -62.049896240234375
558824.0 181614.0 -61.157005310058594
558824.0 181654.0 -62.94279098510742
558824.0 181674.0 -63.83568572998047
558824.0 181694.0 -64.72857666015625
558844.0 180894.0 -28.794044494628906
558844.0 180914.0 -29.714128494262695
558844.0 180934.0 -30.63421058654785
558844.0 180954.0 -31.55429458618164
558844.0 180974.0 -32.4743766784668
558844.0 180994.0 -33.39445877075195
558844.0 181014.0 -34.314544677734375
558844.0 181034.0 -35.23462677001953
558844.0 181054.0 -36.15389633178711
558844.0 181074.0 -37.046791076660156
558844.0 181094.0 -37.93968200683594
558844.0 181114.0 -38.832576751708984
558844.0 181134.0 -39.725467681884766
558844.0 181154.0 -40.61836242675781
558844.0 181174.0 -41.511253356933594
558844.0 181194.0 -42.40414810180664
558844.0 181214.0 -43.29704284667969
558844.0 181234.0 -44.18993377685547
558844.0 181254.0 -45.082828521728516
558844.0 181274.0 -45.9757194519043
558844.0 181294.0 -46.868614196777344
558844.0 181314.0 -47.761505126953125
558844.0 181334.0 -48.65439987182617
558844.0 181354.0 -49.54729080200195
558844.0 181374.0 -50.440185546875
558844.0 181394.0 -51.33308029174805
558844.0 181414.0 -52.22597122192383
558844.0 181434.0 -53.118865966796875
558844.0 181454.0 -54.011756896972656
558844.0 181474.0 -54.9046516418457
558844.0 181494.0 -55.797542572021484
558844.0 181514.0 -56.69043731689453
558844.0 181534.0 -57.58332824707031
558844.0 181554.0 -58.47622299194336
558844.0 181574.0 -59.36911392211914
558844.0 181594.0 -60.26200866699219
558844.0 181634.0 -62.047794342041016
558844.0 181614.0 -61.154903411865234
558844.0 181654.0 -62.94068908691406
558844.0 181674.0 -63.833580017089844
558844.0 181694.0 -64.72647094726562
558264.0 181714.0 -65.1201400756836
558264.0 181734.0 -66.04022216796875
558284.0 181714.0 -65.16831970214844
558264.0 181754.0 -66.9603042602539
558284.0 181734.0 -66.08840942382812
558264.0 181774.0 -67.88038635253906
558284.0 181754.0 -67.00849151611328
558264.0 181794.0 -68.80046844482422
558284.0 181774.0 -67.92857360839844
558264.0 181814.0 -69.7205581665039
558284.0 181794.0 -68.8486557006836
558264.0 181834.0 -70.64064025878906
558284.0 181814.0 -69.76873779296875
558264.0 181854.0 -71.56072235107422
558284.0 181834.0 -70.6888198852539
558264.0 181874.0 -72.48080444335938
558284.0 181854.0 -71.60890197753906
558264.0 181894.0 -73.40088653564453
558284.0 181874.0 -72.52898406982422
558264.0 181914.0 -74.32096862792969
558284.0 181894.0 -73.4490737915039
558264.0 181934.0 -75.24105072021484
558284.0 181914.0 -74.36915588378906
558264.0 181954.0 -76.1611328125
558284.0 181934.0 -75.28923797607422
558264.0 181974.0 -77.08122253417969
558284.0 181954.0 -76.20932006835938
558264.0 181994.0 -78.00130462646484
558284.0 181974.0 -77.12940216064453
558264.0 182014.0 -78.92138671875
558284.0 181994.0 -78.04948425292969
558264.0 182034.0 -79.84146881103516
558284.0 182034.0 -79.8896484375
558284.0 182014.0 -78.96956634521484
558264.0 182054.0 -80.76155090332031
558264.0 182074.0 -81.68163299560547
558284.0 182054.0 -80.80973815917969
558264.0 182094.0 -82.60171508789062
558284.0 182074.0 -81.72982025146484
558264.0 182114.0 -83.52180480957031
558284.0 182094.0 -82.64321899414062
558264.0 182134.0 -84.43110656738281
558284.0 182114.0 -83.5361099243164
558264.0 182154.0 -85.32400512695312
558284.0 182134.0 -84.42900848388672
558264.0 182174.0 -86.2168960571289
558284.0 182154.0 -85.3218994140625
558264.0 182194.0 -87.10978698730469
558284.0 182174.0 -86.21479034423828
558264.0 182214.0 -88.00267791748047
558284.0 182194.0 -87.1076889038086
558264.0 182234.0 -88.89557647705078
558284.0 182214.0 -88.00057983398438
558264.0 182254.0 -89.78846740722656
558284.0 182234.0 -88.89347076416016
558264.0 182274.0 -90.68135833740234
558284.0 182254.0 -89.78636169433594
558264.0 182294.0 -91.57425689697266
558284.0 182274.0 -90.67926025390625
558264.0 182314.0 -92.47010803222656
558284.0 182294.0 -91.57215118408203
558264.0 182334.0 -93.37543487548828
558284.0 182314.0 -92.47703552246094
558264.0 182354.0 -94.28075408935547
558284.0 182334.0 -93.38236236572266
558264.0 182374.0 -95.18607330322266
558284.0 182354.0 -94.28768157958984
558264.0 182394.0 -96.09140014648438
558284.0 182374.0 -95.19300842285156
558284.0 182394.0 -96.09832763671875
558304.0 181714.0 -65.21650695800781
558304.0 181734.0 -66.13658905029297
558304.0 181754.0 -67.05667114257812
558304.0 181774.0 -67.97675323486328
558304.0 181794.0 -68.89683532714844
558304.0 181814.0 -69.81692504882812
558304.0 181834.0 -70.73700714111328
558304.0 181854.0 -71.65708923339844
558304.0 181874.0 -72.5771713256836
558304.0 181894.0 -73.49725341796875
558304.0 181914.0 -74.4173355102539
558304.0 181934.0 -75.33741760253906
558304.0 181954.0 -76.25749969482422
558304.0 181974.0 -77.1775894165039
558304.0 181994.0 -78.09767150878906
558304.0 182034.0 -79.93783569335938
558304.0 182014.0 -79.01775360107422
558304.0 182054.0 -80.85533142089844
558304.0 182074.0 -81.74822235107422
558304.0 182094.0 -82.64112091064453
558304.0 182114.0 -83.53401184082031
558304.0 182134.0 -84.4269027709961
558304.0 182154.0 -85.31979370117188
558304.0 182174.0 -86.21269226074219
558304.0 182194.0 -87.10558319091797
558304.0 182214.0 -87.99847412109375
558304.0 182234.0 -88.89136505126953
558304.0 182254.0 -89.78426361083984
558304.0 182274.0 -90.67715454101562
558304.0 182294.0 -91.57864379882812
558304.0 182314.0 -92.48396301269531
558304.0 182334.0 -93.38928985595703
558304.0 182354.0 -94.29460906982422
558304.0 182374.0 -95.19993591308594
558304.0 182394.0 -96.10525512695312
558324.0 181714.0 -65.26468658447266
558324.0 181734.0 -66.18476867675781
558324.0 181754.0 -67.1048583984375
558324.0 181774.0 -68.02494049072266
558324.0 181794.0 -68.94502258300781
558324.0 181814.0 -69.86510467529297
558324.0 181834.0 -70.78518676757812
558324.0 181854.0 -71.70526885986328
558324.0 181874.0 -72.62535095214844
558324.0 181894.0 -73.54544067382812
558324.0 181914.0 -74.46552276611328
558324.0 181934.0 -75.38560485839844
558324.0 181954.0 -76.3056869506836
558324.0 181974.0 -77.22576904296875
558324.0 181994.0 -78.1458511352539
558324.0 182034.0 -79.96033477783203
558324.0 182014.0 -79.06593322753906
558324.0 182054.0 -80.85322570800781
558324.0 182074.0 -81.74612426757812
558324.0 182094.0 -82.6390151977539
558324.0 182114.0 -83.53190612792969
558324.0 182134.0 -84.42479705810547
558324.0 182154.0 -85.31769561767578
558324.0 182174.0 -86.21058654785156
558324.0 182194.0 -87.10347747802734
558324.0 182214.0 -87.99637603759766
558324.0 182234.0 -88.88926696777344
558324.0 182254.0 -89.78215789794922
558324.0 182274.0 -90.68025207519531
558324.0 182294.0 -91.5855712890625
558324.0 182314.0 -92.49089813232422
558324.0 182334.0 -93.3962173461914
558324.0 182354.0 -94.3015365600586
558324.0 182374.0 -95.20686340332031
558324.0 182394.0 -96.1121826171875
558344.0 181714.0 -65.31287384033203
558344.0 181734.0 -66.23295593261719
558344.0 181754.0 -67.15303802490234
558344.0 181774.0 -68.0731201171875
558344.0 181794.0 -68.99320220947266
558344.0 181814.0 -69.91328430175781
558344.0 181834.0 -70.8333740234375
558344.0 181854.0 -71.75345611572266
558344.0 181874.0 -72.67353820800781
558344.0 181894.0 -73.59362030029297
558344.0 181914.0 -74.51370239257812
558344.0 181934.0 -75.43378448486328
558344.0 181954.0 -76.35386657714844
558344.0 181974.0 -77.27395629882812
558344.0 181994.0 -78.17244720458984
558344.0 182034.0 -79.9582290649414
558344.0 182014.0 -79.06533813476562
558344.0 182054.0 -80.85112762451172
558344.0 182074.0 -81.7440185546875
558344.0 182094.0 -82.63690948486328
558344.0 182114.0 -83.52980041503906
558344.0 182134.0 -84.42269897460938
558344.0 182154.0 -85.31558990478516
558344.0 182174.0 -86.20848083496094
558344.0 182194.0 -87.10137939453125
558344.0 182214.0 -87.99427032470703
558344.0 182234.0 -88.88716125488281
558344.0 182254.0 -89.78185272216797
558344.0 182274.0 -90.68717956542969
558344.0 182294.0 -91.59249877929688
558344.0 182314.0 -92.4978256225586
558344.0 182334.0 -93.40314483642578
558344.0 182354.0 -94.30846405029297
558344.0 182374.0 -95.21379089355469
558344.0 182394.0 -96.11911010742188
558364.0 181714.0 -65.36105346679688
558364.0 181734.0 -66.28113555908203
558364.0 181754.0 -67.20122528076172
558364.0 181774.0 -68.12130737304688
558364.0 181794.0 -69.04138946533203
558364.0 181814.0 -69.96147155761719
558364.0 181834.0 -70.88155364990234
558364.0 181854.0 -71.8016357421875
558364.0 181874.0 -72.72171783447266
558364.0 181894.0 -73.64179992675781
558364.0 181914.0 -74.5618896484375
558364.0 181934.0 -75.48197174072266
558364.0 181954.0 -76.38455963134766
558364.0 181974.0 -77.27745056152344
558364.0 181994.0 -78.17034149169922
558364.0 182034.0 -79.95613098144531
558364.0 182014.0 -79.063232421875
558364.0 182054.0 -80.8490219116211
558364.0 182074.0 -81.74191284179688
558364.0 182094.0 -82.63481140136719
558364.0 182114.0 -83.52770233154297
558364.0 182134.0 -84.42059326171875
558364.0 182154.0 -85.31348419189453
558364.0 182174.0 -86.20638275146484
558364.0 182194.0 -87.09927368164062
558364.0 182214.0 -87.9921646118164
558364.0 182234.0 -88.88506317138672
558364.0 182254.0 -89.78878021240234
558364.0 182274.0 -90.69410705566406
558364.0 182294.0 -91.59942626953125
558364.0 182314.0 -92.50475311279297
558364.0 182334.0 -93.41007232666016
558364.0 182354.0 -94.31539916992188
558364.0 182374.0 -95.22071838378906
558364.0 182394.0 -96.12603759765625
558384.0 181714.0 -65.40924072265625
558384.0 181734.0 -66.3293228149414
558384.0 181754.0 -67.24940490722656
558384.0 181774.0 -68.16948699951172
558384.0 181794.0 -69.08956909179688
558384.0 181814.0 -70.00965118408203
558384.0 181834.0 -70.92974090576172
558384.0 181854.0 -71.84982299804688
558384.0 181874.0 -72.76990509033203
558384.0 181894.0 -73.68998718261719
558384.0 181914.0 -74.59666442871094
558384.0 181934.0 -75.48956298828125
558384.0 181954.0 -76.38245391845703
558384.0 181974.0 -77.27534484863281
558384.0 181994.0 -78.16824340820312
558384.0 182034.0 -79.95402526855469
558384.0 182014.0 -79.0611343383789
558384.0 182054.0 -80.84691619873047
558384.0 182074.0 -81.73981475830078
558384.0 182094.0 -82.63270568847656
558384.0 182114.0 -83.52559661865234
558384.0 182134.0 -84.41848754882812
558384.0 182154.0 -85.31138610839844
558384.0 182174.0 -86.20427703857422
558384.0 182194.0 -87.09716796875
558384.0 182214.0 -87.99006652832031
558384.0 182234.0 -88.89038848876953
558384.0 182254.0 -89.79571533203125
558384.0 182274.0 -90.70103454589844
558384.0 182294.0 -91.60635375976562
558384.0 182314.0 -92.51168060302734
558384.0 182334.0 -93.41699981689453
558384.0 182354.0 -94.32232666015625
558384.0 182374.0 -95.22764587402344
558384.0 182394.0 -96.13297271728516
558404.0 181714.0 -65.4574203491211
558404.0 181734.0 -66.37750244140625
558404.0 181754.0 -67.2975845336914
558404.0 181774.0 -68.2176742553711
558404.0 181794.0 -69.13775634765625
558404.0 181814.0 -70.0578384399414
558404.0 181834.0 -70.97792053222656
558404.0 181854.0 -71.89800262451172
558404.0 181874.0 -72.80877685546875
558404.0 181894.0 -73.70167541503906
558404.0 181914.0 -74.59456634521484
558404.0 181934.0 -75.48745727539062
558404.0 181954.0 -76.3803482055664
558404.0 181974.0 -77.27324676513672
558404.0 181994.0 -78.1661376953125
558404.0 182034.0 -79.95191955566406
558404.0 182014.0 -79.05902862548828
558404.0 182054.0 -80.84481811523438
558404.0 182074.0 -81.73770904541016
558404.0 182094.0 -82.63059997558594
558404.0 182114.0 -83.52349853515625
558404.0 182134.0 -84.41638946533203
558404.0 182154.0 -85.30928039550781
558404.0 182174.0 -86.2021713256836
558404.0 182194.0 -87.0950698852539
558404.0 182214.0 -87.99199676513672
558404.0 182234.0 -88.8973159790039
558404.0 182254.0 -89.80264282226562
558404.0 182274.0 -90.70796203613281
558404.0 182294.0 -91.61328887939453
558404.0 182314.0 -92.51860809326172
558404.0 182334.0 -93.4239273071289
558404.0 182354.0 -94.32925415039062
558404.0 182374.0 -95.23457336425781
558404.0 182394.0 -96.13990020751953
558424.0 181714.0 -65.50560760498047
558424.0 181734.0 -66.42568969726562
558424.0 181754.0 -67.34577178955078
558424.0 181774.0 -68.26585388183594
558424.0 181794.0 -69.1859359741211
558424.0 181814.0 -70.10601806640625
558424.0 181834.0 -71.02088928222656
558424.0 181854.0 -71.91378021240234
558424.0 181874.0 -72.80667877197266
558424.0 181894.0 -73.69956970214844
558424.0 181914.0 -74.59246063232422
558424.0 181934.0 -75.4853515625
558424.0 181954.0 -76.37825012207031
558424.0 181974.0 -77.2711410522461
558424.0 181994.0 -78.16403198242188
558424.0 182014.0 -79.05693054199219
558424.0 182034.0 -79.94982147216797
558424.0 182054.0 -80.84271240234375
558424.0 182074.0 -81.73560333251953
558424.0 182094.0 -82.62850189208984
558424.0 182114.0 -83.52139282226562
558424.0 182134.0 -84.4142837524414
558424.0 182154.0 -85.30717468261719
558424.0 182174.0 -86.2000732421875
558424.0 182194.0 -87.0936050415039
558424.0 182214.0 -87.9989242553711
558424.0 182234.0 -88.90424346923828
558424.0 182254.0 -89.8095703125
558424.0 182274.0 -90.71488952636719
558424.0 182294.0 -91.6202163696289
558424.0 182314.0 -92.5255355834961
558424.0 182334.0 -93.43085479736328
558424.0 182354.0 -94.336181640625
558424.0 182374.0 -95.24150085449219
558424.0 182394.0 -96.1468276977539
558444.0 181714.0 -65.55378723144531
558444.0 181734.0 -66.47386932373047
558444.0 181754.0 -67.39395141601562
558444.0 181774.0 -68.31404113769531
558444.0 181794.0 -69.23300170898438
558444.0 181814.0 -70.12589263916016
558444.0 181834.0 -71.01878356933594
558444.0 181854.0 -71.91168212890625
558444.0 181874.0 -72.80457305908203
558444.0 181894.0 -73.69746398925781
558444.0 181914.0 -74.5903549194336
558444.0 181934.0 -75.4832534790039
558444.0 181954.0 -76.37614440917969
558444.0 181974.0 -77.26903533935547
558444.0 181994.0 -78.16193389892578
558444.0 182014.0 -79.05482482910156
558444.0 182034.0 -79.94771575927734
558444.0 182054.0 -80.84060668945312
558444.0 182074.0 -81.73350524902344
558444.0 182094.0 -82.62639617919922
558444.0 182114.0 -83.519287109375
558444.0 182134.0 -84.41218566894531
558444.0 182154.0 -85.3050765991211
558444.0 182174.0 -86.19796752929688
558444.0 182194.0 -87.10053253173828
558444.0 182214.0 -88.00585174560547
558444.0 182234.0 -88.91117858886719
558444.0 182254.0 -89.81649780273438
558444.0 182274.0 -90.72181701660156
558444.0 182294.0 -91.62714385986328
558444.0 182314.0 -92.53246307373047
558444.0 182334.0 -93.43778991699219
558444.0 182354.0 -94.34310913085938
558444.0 182374.0 -95.24842834472656
558444.0 182394.0 -96.15375518798828
558464.0 181714.0 -65.60197448730469
558464.0 181734.0 -66.52205657958984
558464.0 181754.0 -67.442138671875
558464.0 181774.0 -68.33800506591797
558464.0 181794.0 -69.23089599609375
558464.0 181814.0 -70.12378692626953
558464.0 181834.0 -71.01668548583984
558464.0 181854.0 -71.90957641601562
558464.0 181874.0 -72.8024673461914
558464.0 181894.0 -73.69536590576172
558464.0 181914.0 -74.5882568359375
558464.0 181934.0 -75.48114776611328
558464.0 181954.0 -76.37403869628906
558464.0 181974.0 -77.26693725585938
558464.0 181994.0 -78.15982818603516
558464.0 182014.0 -79.05271911621094
558464.0 182034.0 -79.94561004638672
558464.0 182054.0 -80.83850860595703
558464.0 182074.0 -81.73139953613281
558464.0 182094.0 -82.6242904663086
558464.0 182114.0 -83.5171890258789
558464.0 182134.0 -84.41007995605469
558464.0 182154.0 -85.30297088623047
558464.0 182174.0 -86.20213317871094
558464.0 182194.0 -87.10746002197266
558464.0 182214.0 -88.01277923583984
558464.0 182234.0 -88.91810607910156
558464.0 182254.0 -89.82342529296875
558464.0 182274.0 -90.72874450683594
558464.0 182294.0 -91.63407135009766
558464.0 182314.0 -92.53939056396484
558464.0 182334.0 -93.44471740722656
558464.0 182354.0 -94.35003662109375
558464.0 182374.0 -95.25536346435547
558464.0 182394.0 -96.16068267822266
558484.0 181714.0 -65.65015411376953
558484.0 181734.0 -66.55011749267578
558484.0 181754.0 -67.44300842285156
558484.0 181774.0 -68.33589935302734
558484.0 181794.0 -69.22879791259766
558484.0 181814.0 -70.12168884277344
558484.0 181834.0 -71.01457977294922
558484.0 181854.0 -71.907470703125
558484.0 181874.0 -72.80036926269531
558484.0 181894.0 -73.6932601928711
558484.0 181914.0 -74.58615112304688
558484.0 181934.0 -75.47904205322266
558484.0 181954.0 -76.37194061279297
558484.0 181974.0 -77.26483154296875
558484.0 181994.0 -78.15772247314453
558484.0 182014.0 -79.05062103271484
558484.0 182034.0 -79.94351196289062
558484.0 182054.0 -80.8364028930664
558484.0 182074.0 -81.72929382324219
558484.0 182094.0 -82.6221923828125
558484.0 182114.0 -83.51508331298828
558484.0 182134.0 -84.40797424316406
558484.0 182154.0 -85.30374145507812
558484.0 182174.0 -86.20906066894531
558484.0 182194.0 -87.11438751220703
558484.0 182214.0 -88.01970672607422
558484.0 182234.0 -88.92503356933594
558484.0 182254.0 -89.83035278320312
558484.0 182274.0 -90.73567962646484
558484.0 182294.0 -91.64099884033203
558484.0 182314.0 -92.54631805419922
558484.0 182334.0 -93.45164489746094
558484.0 182354.0 -94.35696411132812
558484.0 182374.0 -95.26229095458984
558484.0 182394.0 -96.16761016845703
558504.0 181714.0 -65.65512084960938
558504.0 181734.0 -66.54801177978516
558504.0 181754.0 -67.44090270996094
558504.0 181774.0 -68.33380126953125
558504.0 181794.0 -69.22669219970703
558504.0 181814.0 -70.11958312988281
558504.0 181834.0 -71.0124740600586
558504.0 181854.0 -71.9053726196289
558504.0 181874.0 -72.79826354980469
558504.0 181894.0 -73.69115447998047
558504.0 181914.0 -74.58405303955078
558504.0 181934.0 -75.47694396972656
558504.0 181954.0 -76.36983489990234
558504.0 181974.0 -77.26272583007812
558504.0 181994.0 -78.15562438964844
558504.0 182014.0 -79.04851531982422
558504.0 182034.0 -79.94140625
558504.0 182054.0 -80.83429718017578
558504.0 182074.0 -81.7271957397461
558504.0 182094.0 -82.62008666992188
558504.0 182114.0 -83.51297760009766
558504.0 182134.0 -84.40587615966797
558504.0 182154.0 -85.3106689453125
558504.0 182174.0 -86.21599578857422
558504.0 182194.0 -87.1213150024414
558504.0 182214.0 -88.0266342163086
558504.0 182234.0 -88.93196105957031
558504.0 182254.0 -89.8372802734375
558504.0 182274.0 -90.74260711669922
558504.0 182294.0 -91.6479263305664
558504.0 182314.0 -92.5532455444336
558504.0 182334.0 -93.45857238769531
558504.0 182354.0 -94.3638916015625
558504.0 182374.0 -95.26921844482422
558504.0 182394.0 -96.1745376586914
558524.0 181714.0 -65.65301513671875
558524.0 181734.0 -66.54590606689453
558524.0 181754.0 -67.43880462646484
558524.0 181774.0 -68.33169555664062
558524.0 181794.0 -69.2245864868164
558524.0 181814.0 -70.11747741699219
558524.0 181834.0 -71.0103759765625
558524.0 181854.0 -71.90326690673828
558524.0 181874.0 -72.79615783691406
558524.0 181894.0 -73.68905639648438
558524.0 181914.0 -74.58194732666016
558524.0 181934.0 -75.47483825683594
558524.0 181954.0 -76.36772918701172
558524.0 181974.0 -77.26062774658203
558524.0 181994.0 -78.15351867675781
558524.0 182014.0 -79.0464096069336
558524.0 182054.0 -80.83219909667969
558524.0 182074.0 -81.72509002685547
558524.0 182094.0 -82.61798095703125
558524.0 182114.0 -83.51087951660156
558524.0 182134.0 -84.41227722167969
558524.0 182154.0 -85.31759643554688
558524.0 182174.0 -86.2229232788086
558524.0 182194.0 -87.12824249267578
558524.0 182214.0 -88.0335693359375
558524.0 182234.0 -88.93888854980469
558524.0 182254.0 -89.84420776367188
558524.0 182274.0 -90.7495346069336
558524.0 182294.0 -91.65485382080078
558524.0 182314.0 -92.5601806640625
558524.0 182334.0 -93.46549987792969
558524.0 182354.0 -94.37081909179688
558524.0 182374.0 -95.2761459350586
558524.0 182394.0 -96.18146514892578
558544.0 181714.0 -65.65090942382812
558544.0 181734.0 -66.54380798339844
558544.0 181754.0 -67.43669891357422
558544.0 181774.0 -68.32958984375
558544.0 181794.0 -69.22248840332031
558544.0 181814.0 -70.1153793334961
558544.0 181834.0 -71.00827026367188
558544.0 181854.0 -71.90116119384766
558544.0 181874.0 -72.79405975341797
558544.0 181894.0 -73.68695068359375
558544.0 181914.0 -74.57984161376953
558544.0 181934.0 -75.47273254394531
558544.0 181954.0 -76.36563110351562
558544.0 181974.0 -77.2585220336914
558544.0 181994.0 -78.15141296386719
558544.0 182014.0 -79.0443115234375
558544.0 182034.0 -79.93720245361328
558544.0 182054.0 -80.83009338378906
558544.0 182074.0 -81.72298431396484
558544.0 182094.0 -82.61588287353516
558544.0 182114.0 -83.51388549804688
558544.0 182134.0 -84.41920471191406
558544.0 182154.0 -85.32452392578125
558544.0 182174.0 -86.22985076904297
558544.0 182194.0 -87.13516998291016
558544.0 182214.0 -88.04049682617188
558544.0 182234.0 -88.94581604003906
558544.0 182254.0 -89.85113525390625
558544.0 182274.0 -90.75646209716797
558544.0 182294.0 -91.66178131103516
558544.0 182314.0 -92.56710815429688
558544.0 182334.0 -93.47242736816406
558544.0 182354.0 -94.37775421142578
558544.0 182374.0 -95.28307342529297
558544.0 182394.0 -96.18839263916016
558564.0 181714.0 -65.64881134033203
558564.0 181734.0 -66.54170227050781
558584.0 181714.0 -65.6467056274414
558564.0 181754.0 -67.4345932006836
558584.0 181734.0 -66.53959655761719
558564.0 181774.0 -68.3274917602539
558584.0 181754.0 -67.4324951171875
558564.0 181794.0 -69.22038269042969
558584.0 181774.0 -68.32538604736328
558564.0 181814.0 -70.11327362060547
558584.0 181794.0 -69.21827697753906
558564.0 181834.0 -71.00616455078125
558584.0 181814.0 -70.11117553710938
558564.0 181854.0 -71.89906311035156
558584.0 181834.0 -71.00406646728516
558564.0 181874.0 -72.79195404052734
558584.0 181854.0 -71.89695739746094
558564.0 181894.0 -73.68484497070312
558584.0 181874.0 -72.78984832763672
558564.0 181914.0 -74.57774353027344
558584.0 181894.0 -73.68274688720703
558564.0 181934.0 -75.47063446044922
558584.0 181914.0 -74.57563781738281
558564.0 181954.0 -76.363525390625
558584.0 181934.0 -75.4685287475586
558564.0 181974.0 -77.25641632080078
558584.0 181954.0 -76.36141967773438
558564.0 181994.0 -78.1493148803711
558584.0 181974.0 -77.25431823730469
558564.0 182014.0 -79.04220581054688
558584.0 181994.0 -78.14720916748047
558564.0 182034.0 -79.93509674072266
558584.0 182034.0 -79.93299865722656
558584.0 182014.0 -79.04010009765625
558564.0 182054.0 -80.82799530029297
558564.0 182074.0 -81.72088623046875
558584.0 182054.0 -80.82588958740234
558564.0 182094.0 -82.61548614501953
558584.0 182074.0 -81.71878051757812
558564.0 182114.0 -83.52081298828125
558584.0 182094.0 -82.6224136352539
558564.0 182134.0 -84.42613220214844
558584.0 182114.0 -83.52774047851562
558564.0 182154.0 -85.33145904541016
558584.0 182134.0 -84.43305969238281
558564.0 182174.0 -86.23677825927734
558584.0 182154.0 -85.33838653564453
558564.0 182194.0 -87.14209747314453
558584.0 182174.0 -86.24370574951172
558564.0 182214.0 -88.04742431640625
558584.0 182194.0 -87.1490249633789
558564.0 182234.0 -88.95274353027344
558584.0 182214.0 -88.05435180664062
558564.0 182254.0 -89.85807037353516
558584.0 182234.0 -88.95967102050781
558564.0 182274.0 -90.76338958740234
558584.0 182254.0 -89.86499786376953
558564.0 182294.0 -91.66870880126953
558584.0 182274.0 -90.77031707763672
558564.0 182314.0 -92.57403564453125
558584.0 182294.0 -91.67564392089844
558564.0 182334.0 -93.47935485839844
558584.0 182314.0 -92.58096313476562
558564.0 182354.0 -94.38468170166016
558584.0 182334.0 -93.48628234863281
558564.0 182374.0 -95.29000091552734
558584.0 182354.0 -94.39160919189453
558564.0 182394.0 -96.19532012939453
558584.0 182374.0 -95.29692840576172
558584.0 182394.0 -96.20225524902344
558604.0 181714.0 -65.64459991455078
558604.0 181734.0 -66.5374984741211
558604.0 181754.0 -67.43038940429688
558604.0 181774.0 -68.32328033447266
558604.0 181794.0 -69.21617889404297
558604.0 181814.0 -70.10906982421875
558604.0 181834.0 -71.00196075439453
558604.0 181854.0 -71.89485168457031
558604.0 181874.0 -72.78775024414062
558604.0 181894.0 -73.6806411743164
558604.0 181914.0 -74.57353210449219
558604.0 181934.0 -75.4664306640625
558604.0 181954.0 -76.35932159423828
558604.0 181974.0 -77.25221252441406
558604.0 181994.0 -78.14510345458984
558604.0 182034.0 -79.93089294433594
558604.0 182014.0 -79.03800201416016
558604.0 182054.0 -80.82378387451172
558604.0 182074.0 -81.7240219116211
558604.0 182094.0 -82.62934112548828
558604.0 182114.0 -83.53466796875
558604.0 182134.0 -84.43998718261719
558604.0 182154.0 -85.3453140258789
558604.0 182174.0 -86.2506332397461
558604.0 182194.0 -87.15596008300781
558604.0 182214.0 -88.061279296875
558604.0 182234.0 -88.96659851074219
558604.0 182254.0 -89.8719253540039
558604.0 182274.0 -90.7772445678711
558604.0 182294.0 -91.68257141113281
558604.0 182314.0 -92.587890625
558604.0 182334.0 -93.49320983886719
558604.0 182354.0 -94.3985366821289
558604.0 182374.0 -95.3038558959961
558604.0 182394.0 -96.20918273925781
558624.0 181714.0 -65.64250183105469
558624.0 181734.0 -66.53539276123047
558624.0 181754.0 -67.42828369140625
558624.0 181774.0 -68.32118225097656
558624.0 181794.0 -69.21407318115234
558624.0 181814.0 -70.10696411132812
558624.0 181834.0 -70.99986267089844
558624.0 181854.0 -71.89275360107422
558624.0 181874.0 -72.78564453125
558624.0 181894.0 -73.67853546142578
558624.0 181914.0 -74.5714340209961
558624.0 181934.0 -75.46432495117188
558624.0 181954.0 -76.35721588134766
558624.0 181974.0 -77.25010681152344
558624.0 181994.0 -78.14300537109375
558624.0 182034.0 -79.92878723144531
558624.0 182014.0 -79.03589630126953
558624.0 182054.0 -80.82563018798828
558624.0 182074.0 -81.73094940185547
558624.0 182094.0 -82.63627624511719
558624.0 182114.0 -83.54159545898438
558624.0 182134.0 -84.44691467285156
558624.0 182154.0 -85.35224151611328
558624.0 182174.0 -86.25756072998047
558624.0 182194.0 -87.16288757324219
558624.0 182214.0 -88.06820678710938
558624.0 182234.0 -88.97352600097656
558624.0 182254.0 -89.87885284423828
558624.0 182274.0 -90.78417205810547
558624.0 182294.0 -91.68949890136719
558624.0 182314.0 -92.59481811523438
558624.0 182334.0 -93.5001449584961
558624.0 182354.0 -94.40546417236328
558624.0 182374.0 -95.31078338623047
558624.0 182394.0 -96.21611022949219
558644.0 181714.0 -65.64039611816406
558644.0 181734.0 -66.53328704833984
558644.0 181754.0 -67.42618560791016
558644.0 181774.0 -68.31907653808594
558644.0 181794.0 -69.21196746826172
558644.0 181814.0 -70.10486602783203
558644.0 181834.0 -70.99775695800781
558644.0 181854.0 -71.8906478881836
558644.0 181874.0 -72.78353881835938
558644.0 181894.0 -73.67643737792969
558644.0 181914.0 -74.56932830810547
558644.0 181934.0 -75.46221923828125
558644.0 181954.0 -76.35511779785156
558644.0 181974.0 -77.24800872802734
558644.0 181994.0 -78.14089965820312
