557584.0 177194.0 -13.60405445098877
557584.0 177214.0 -13.621166229248047
557584.0 177234.0 -13.78791618347168
557584.0 177254.0 -13.861539840698242
557584.0 177274.0 -13.908365249633789
557584.0 177294.0 -13.881706237792969
557584.0 177314.0 -13.828573226928711
557584.0 177334.0 -13.809925079345703
557584.0 177354.0 -13.842342376708984
557584.0 177374.0 -14.23475456237793
557584.0 177394.0 -14.673781394958496
557584.0 177414.0 -15.08557415008545
557584.0 177434.0 -15.589873313903809
557584.0 177454.0 -16.09188461303711
557584.0 177474.0 -15.99468994140625
557584.0 177494.0 -11.641358375549316
557584.0 177514.0 -8.319371223449707
557584.0 177534.0 -4.997384548187256
557584.0 177554.0 -3.442401647567749
557584.0 177574.0 -1.9130147695541382
557584.0 177594.0 -1.6141035556793213
557584.0 177614.0 -2.387214183807373
557604.0 176814.0 -13.89486312866211
557604.0 176834.0 -13.968507766723633
557604.0 176854.0 -13.985944747924805
557604.0 176874.0 -14.003381729125977
557604.0 176894.0 -13.972596168518066
557604.0 176914.0 -13.937810897827148
557604.0 176934.0 -13.906530380249023
557604.0 176954.0 -13.907156944274902
557604.0 176974.0 -13.92304515838623
557604.0 176994.0 -13.934588432312012
557604.0 177014.0 -13.92701244354248
557604.0 177034.0 -13.919435501098633
557604.0 177054.0 -13.910941123962402
557604.0 177074.0 -13.843403816223145
557604.0 177094.0 -13.737924575805664
557604.0 177114.0 -13.632445335388184
557604.0 177134.0 -13.526966094970703
557604.0 177154.0 -13.423666954040527
557604.0 177174.0 -13.361312866210938
557604.0 177194.0 -13.39706802368164
557604.0 177214.0 -13.473788261413574
557604.0 177234.0 -13.526649475097656
557604.0 177254.0 -13.599773406982422
557604.0 177274.0 -13.702269554138184
557604.0 177294.0 -13.816261291503906
557604.0 177314.0 -13.779707908630371
557604.0 177334.0 -13.729720115661621
557604.0 177354.0 -13.749131202697754
557604.0 177374.0 -14.2262544631958
557604.0 177394.0 -14.700289726257324
557604.0 177414.0 -15.11916732788086
557604.0 177434.0 -15.483451843261719
557604.0 177454.0 -15.8431978225708
557604.0 177474.0 -15.459607124328613
557604.0 177494.0 -10.427783966064453
557604.0 177514.0 -5.893581390380859
557604.0 177534.0 -3.512782573699951
557604.0 177554.0 -1.994570255279541
557604.0 177574.0 -0.4763578772544861
557604.0 177594.0 -1.035300612449646
557604.0 177614.0 -1.6838573217391968
557624.0 176814.0 -13.956096649169922
557624.0 176834.0 -14.01303768157959
557624.0 176854.0 -14.028785705566406
557624.0 176874.0 -14.041093826293945
557624.0 176894.0 -14.006866455078125
557624.0 176914.0 -13.957423210144043
557624.0 176934.0 -13.910231590270996
557624.0 176954.0 -13.915498733520508
557624.0 176974.0 -13.950505256652832
557624.0 176994.0 -13.983695983886719
557624.0 177014.0 -13.967789649963379
557624.0 177034.0 -13.948821067810059
557624.0 177054.0 -13.91401481628418
557624.0 177074.0 -13.719067573547363
557624.0 177094.0 -13.62198543548584
557624.0 177114.0 -13.524903297424316
557624.0 177134.0 -13.427821159362793
557624.0 177154.0 -13.33073902130127
557624.0 177174.0 -13.233656883239746
557624.0 177194.0 -13.182507514953613
557624.0 177214.0 -13.285003662109375
557624.0 177234.0 -13.387499809265137
557624.0 177254.0 -13.489995956420898
557624.0 177274.0 -13.59249210357666
557624.0 177294.0 -13.716904640197754
557624.0 177314.0 -13.713621139526367
557624.0 177334.0 -13.657150268554688
557624.0 177354.0 -13.73026180267334
557624.0 177374.0 -14.022181510925293
557624.0 177394.0 -14.616704940795898
557624.0 177414.0 -15.052078247070312
557624.0 177434.0 -15.415765762329102
557624.0 177454.0 -15.630565643310547
557624.0 177474.0 -12.621495246887207
557624.0 177494.0 -8.989503860473633
557624.0 177514.0 -5.571122646331787
557624.0 177534.0 -3.040518283843994
557624.0 177554.0 -1.8683010339736938
557624.0 177574.0 -0.6772429347038269
557624.0 177594.0 -0.43076062202453613
557624.0 177614.0 -1.1953881978988647
557644.0 176814.0 -14.040130615234375
557644.0 176834.0 -14.053772926330566
557644.0 176854.0 -14.066081047058105
557644.0 176874.0 -14.078388214111328
557644.0 176894.0 -14.041135787963867
557644.0 176914.0 -13.991693496704102
557644.0 176934.0 -13.948862075805664
557644.0 176954.0 -13.916923522949219
557644.0 176974.0 -13.951930046081543
557644.0 176994.0 -13.990690231323242
557644.0 177014.0 -14.001627922058105
557644.0 177034.0 -13.971604347229004
557644.0 177054.0 -13.897659301757812
557644.0 177074.0 -13.613194465637207
557644.0 177094.0 -13.457365989685059
557644.0 177114.0 -13.360283851623535
557644.0 177134.0 -13.263201713562012
557644.0 177154.0 -13.166119575500488
557644.0 177174.0 -13.109681129455566
557644.0 177194.0 -13.113079071044922
557644.0 177214.0 -13.175226211547852
557644.0 177234.0 -13.277722358703613
557644.0 177254.0 -13.380218505859375
557644.0 177274.0 -13.48749828338623
557644.0 177294.0 -13.617547988891602
557644.0 177314.0 -13.64753532409668
557644.0 177334.0 -13.58458137512207
557644.0 177354.0 -13.752991676330566
557644.0 177374.0 -14.023906707763672
557644.0 177394.0 -14.456223487854004
557644.0 177414.0 -15.006303787231445
557644.0 177434.0 -15.35470962524414
557644.0 177454.0 -14.198012351989746
557644.0 177474.0 -10.610062599182129
557644.0 177494.0 -6.958775997161865
557644.0 177514.0 -4.801367282867432
557644.0 177534.0 -3.140512228012085
557644.0 177554.0 -1.4137274026870728
557644.0 177574.0 -0.2415100783109665
557644.0 177594.0 -0.39004260301589966
557644.0 177614.0 -0.8424108028411865
557664.0 176454.0 -13.973936080932617
557664.0 176474.0 -14.005674362182617
557684.0 176454.0 -14.039002418518066
557664.0 176494.0 -14.05916976928711
557684.0 176474.0 -14.071016311645508
557664.0 176514.0 -14.089012145996094
557684.0 176494.0 -14.103031158447266
557664.0 176534.0 -14.02265739440918
557684.0 176514.0 -14.069067001342773
557664.0 176554.0 -13.983202934265137
557684.0 176534.0 -14.020147323608398
557664.0 176574.0 -13.94576358795166
557684.0 176554.0 -13.98001766204834
557664.0 176594.0 -13.890986442565918
557684.0 176574.0 -13.924647331237793
557664.0 176614.0 -13.96347427368164
557684.0 176594.0 -13.939339637756348
557664.0 176634.0 -14.004904747009277
557684.0 176614.0 -13.992753982543945
557664.0 176654.0 -14.067547798156738
557684.0 176634.0 -14.063467979431152
557664.0 176674.0 -14.111760139465332
557684.0 176654.0 -14.1370210647583
557664.0 176694.0 -14.142355918884277
557684.0 176674.0 -14.167588233947754
557664.0 176714.0 -14.134787559509277
557684.0 176694.0 -14.17805004119873
557664.0 176734.0 -14.121660232543945
557684.0 176714.0 -14.164921760559082
557664.0 176754.0 -14.108532905578613
557684.0 176734.0 -14.19503116607666
557664.0 176774.0 -14.09970760345459
557684.0 176754.0 -14.231988906860352
557664.0 176794.0 -14.134011268615723
557684.0 176774.0 -14.260254859924316
557684.0 176794.0 -14.214452743530273
557704.0 176434.0 -14.073010444641113
557704.0 176454.0 -14.104345321655273
557704.0 176474.0 -14.136359214782715
557704.0 176494.0 -14.096630096435547
557704.0 176514.0 -14.04027271270752
557704.0 176534.0 -14.023183822631836
557704.0 176554.0 -13.96020221710205
557704.0 176574.0 -13.916387557983398
557704.0 176594.0 -13.986431121826172
557704.0 176614.0 -14.056782722473145
557704.0 176634.0 -14.140711784362793
557704.0 176654.0 -14.192980766296387
557704.0 176674.0 -14.229837417602539
557704.0 176694.0 -14.290355682373047
557704.0 176714.0 -14.327312469482422
557704.0 176734.0 -14.360867500305176
557704.0 176754.0 -14.385394096374512
557704.0 176774.0 -14.3585844039917
557704.0 176794.0 -14.253515243530273
557724.0 176434.0 -14.137674331665039
557724.0 176454.0 -14.16968822479248
557724.0 176474.0 -14.145044326782227
557724.0 176494.0 -14.070966720581055
557724.0 176514.0 -14.000099182128906
557724.0 176534.0 -13.98261547088623
557724.0 176554.0 -13.994516372680664
557724.0 176574.0 -13.997103691101074
557724.0 176594.0 -14.050150871276855
557724.0 176614.0 -14.143096923828125
557724.0 176634.0 -14.218457221984863
557724.0 176654.0 -14.2777681350708
557724.0 176674.0 -14.302484512329102
557724.0 176694.0 -14.375797271728516
557724.0 176714.0 -14.454480171203613
557724.0 176734.0 -14.50092887878418
557724.0 176754.0 -14.481868743896484
557724.0 176774.0 -14.412032127380371
557724.0 176794.0 -14.292656898498535
557744.0 176414.0 -14.172085762023926
557744.0 176434.0 -14.20301628112793
557744.0 176454.0 -14.19345760345459
557744.0 176474.0 -14.119380950927734
557744.0 176494.0 -14.045303344726562
557744.0 176514.0 -13.971226692199707
557744.0 176534.0 -13.942048072814941
557744.0 176554.0 -13.954634666442871
557744.0 176574.0 -14.023931503295898
557744.0 176594.0 -14.145482063293457
557744.0 176614.0 -14.24393367767334
557744.0 176634.0 -14.319442749023438
557744.0 176654.0 -14.368061065673828
557744.0 176674.0 -14.400827407836914
557744.0 176694.0 -14.490824699401855
557744.0 176714.0 -14.53337287902832
557744.0 176734.0 -14.577081680297852
557744.0 176754.0 -14.566163063049316
557744.0 176774.0 -14.478763580322266
557744.0 176794.0 -14.417964935302734
557764.0 176414.0 -14.236532211303711
557764.0 176434.0 -14.24187183380127
557764.0 176454.0 -14.167794227600098
557764.0 176474.0 -14.093717575073242
557764.0 176494.0 -14.01963996887207
557764.0 176514.0 -13.945563316345215
557764.0 176534.0 -13.901479721069336
557764.0 176554.0 -13.94123363494873
557764.0 176574.0 -14.067302703857422
557764.0 176594.0 -14.206806182861328
557764.0 176614.0 -14.342437744140625
557764.0 176634.0 -14.433637619018555
557764.0 176654.0 -14.466732025146484
557764.0 176674.0 -14.529397010803223
557764.0 176694.0 -14.566872596740723
557764.0 176714.0 -14.622078895568848
557764.0 176734.0 -14.649547576904297
557764.0 176754.0 -14.669225692749023
557764.0 176774.0 -14.576238632202148
557764.0 176794.0 -14.534200668334961
557784.0 176394.0 -14.271163940429688
557824.0 176374.0 -14.365389823913574
557864.0 176354.0 -14.450392723083496
557784.0 176414.0 -14.290285110473633
557784.0 176434.0 -14.216208457946777
557784.0 176454.0 -14.142131805419922
557784.0 176474.0 -14.06805419921875
557784.0 176494.0 -13.993977546691895
557784.0 176514.0 -13.919899940490723
557784.0 176534.0 -13.860912322998047
557784.0 176554.0 -13.981907844543457
557784.0 176574.0 -14.106666564941406
557784.0 176594.0 -14.225746154785156
557784.0 176614.0 -14.344825744628906
557784.0 176634.0 -14.463906288146973
557784.0 176654.0 -14.565765380859375
557784.0 176674.0 -14.60544490814209
557784.0 176694.0 -14.645245552062988
557784.0 176714.0 -14.721846580505371
557784.0 176734.0 -14.74053955078125
557784.0 176754.0 -14.746435165405273
557784.0 176774.0 -14.670235633850098
557784.0 176794.0 -14.650311470031738
557804.0 176394.0 -14.333410263061523
557804.0 176414.0 -14.342488288879395
557804.0 176434.0 -14.271889686584473
557804.0 176454.0 -14.20109748840332
557804.0 176474.0 -14.130304336547852
557804.0 176494.0 -14.0599365234375
557804.0 176514.0 -13.992512702941895
557804.0 176534.0 -13.959342956542969
557804.0 176554.0 -14.085114479064941
557804.0 176574.0 -14.210885047912598
557804.0 176594.0 -14.336655616760254
557804.0 176614.0 -14.462427139282227
557804.0 176634.0 -14.588197708129883
557804.0 176654.0 -14.633026123046875
557804.0 176674.0 -14.679351806640625
557804.0 176694.0 -14.7432279586792
557804.0 176714.0 -14.814617156982422
557804.0 176734.0 -14.856956481933594
557804.0 176754.0 -14.834562301635742
557804.0 176774.0 -14.76561164855957
557804.0 176794.0 -14.716899871826172
557824.0 176394.0 -14.374467849731445
557824.0 176414.0 -14.383545875549316
557824.0 176434.0 -14.393133163452148
557824.0 176454.0 -14.325826644897461
557824.0 176474.0 -14.258403778076172
557824.0 176494.0 -14.190979957580566
557824.0 176514.0 -14.117493629455566
557824.0 176534.0 -14.107813835144043
557824.0 176554.0 -14.2335844039917
557824.0 176574.0 -14.359354972839355
557824.0 176594.0 -14.485125541687012
557824.0 176614.0 -14.610897064208984
557824.0 176634.0 -14.649947166442871
557824.0 176654.0 -14.696272850036621
557824.0 176674.0 -14.749177932739258
557824.0 176694.0 -14.830060005187988
557824.0 176714.0 -14.9149169921875
557824.0 176734.0 -14.973373413085938
557824.0 176754.0 -14.932271003723145
557824.0 176774.0 -14.881847381591797
557824.0 176794.0 -14.734833717346191
557844.0 176374.0 -14.406447410583496
557844.0 176394.0 -14.422138214111328
557844.0 176414.0 -14.440840721130371
557844.0 176434.0 -14.450546264648438
557844.0 176454.0 -14.456815719604492
557844.0 176474.0 -14.389447212219238
557844.0 176494.0 -14.3179931640625
557844.0 176514.0 -14.242094039916992
557844.0 176534.0 -14.2562837600708
557844.0 176554.0 -14.382054328918457
557844.0 176574.0 -14.507824897766113
557844.0 176594.0 -14.633596420288086
557844.0 176614.0 -14.666869163513184
557844.0 176634.0 -14.713193893432617
557844.0 176654.0 -14.766340255737305
557844.0 176674.0 -14.82404613494873
557844.0 176694.0 -14.902649879455566
557844.0 176714.0 -14.996064186096191
557844.0 176734.0 -15.085594177246094
557844.0 176754.0 -15.029980659484863
557844.0 176774.0 -14.922882080078125
557844.0 176794.0 -14.752766609191895
557864.0 176374.0 -14.469095230102539
557864.0 176394.0 -14.487797737121582
557864.0 176414.0 -14.501690864562988
557864.0 176434.0 -14.507960319519043
557864.0 176454.0 -14.514228820800781
557864.0 176474.0 -14.514769554138184
557864.0 176494.0 -14.438990592956543
557864.0 176514.0 -14.369949340820312
557864.0 176534.0 -14.404753684997559
557864.0 176554.0 -14.530524253845215
557864.0 176574.0 -14.655921936035156
557864.0 176594.0 -14.686172485351562
557864.0 176614.0 -14.73011589050293
557864.0 176634.0 -14.783502578735352
557864.0 176654.0 -14.841209411621094
557864.0 176674.0 -14.89891529083252
557864.0 176694.0 -14.975240707397461
557864.0 176714.0 -15.067533493041992
557864.0 176734.0 -15.110481262207031
557864.0 176754.0 -15.093546867370605
557864.0 176774.0 -14.9545316696167
557864.0 176794.0 -14.771713256835938
557884.0 176354.0 -14.51605224609375
557884.0 176374.0 -14.534754753112793
557884.0 176394.0 -14.552835464477539
557884.0 176414.0 -14.559103965759277
557884.0 176434.0 -14.565373420715332
557884.0 176454.0 -14.5895414352417
557884.0 176474.0 -14.583756446838379
557884.0 176494.0 -14.562126159667969
557884.0 176514.0 -14.500697135925293
557884.0 176534.0 -14.553223609924316
557884.0 176554.0 -14.677387237548828
557884.0 176574.0 -14.707637786865234
557884.0 176594.0 -14.747036933898926
557884.0 176614.0 -14.800665855407715
557884.0 176634.0 -14.85837173461914
557884.0 176654.0 -14.916077613830566
557884.0 176674.0 -14.973783493041992
557884.0 176694.0 -15.047830581665039
557884.0 176714.0 -15.139002799987793
557884.0 176734.0 -15.134976387023926
557884.0 176754.0 -15.020045280456543
557884.0 176774.0 -14.874567985534668
557884.0 176794.0 -14.758344650268555
557904.0 176354.0 -14.581711769104004
557904.0 176374.0 -14.600415229797363
557904.0 176394.0 -14.610248565673828
557904.0 176414.0 -14.626880645751953
557904.0 176434.0 -14.653695106506348
557904.0 176454.0 -14.680510520935059
557904.0 176474.0 -14.652775764465332
557904.0 176494.0 -14.651619911193848
557904.0 176514.0 -14.631443977355957
557904.0 176534.0 -14.6988525390625
557904.0 176554.0 -14.729104042053223
557904.0 176574.0 -14.763957977294922
557904.0 176594.0 -14.817828178405762
557904.0 176614.0 -14.875534057617188
557904.0 176634.0 -14.933239936828613
557904.0 176654.0 -14.990945816040039
557904.0 176674.0 -15.048651695251465
557904.0 176694.0 -15.120421409606934
557904.0 176714.0 -15.176406860351562
557904.0 176734.0 -15.08555793762207
557904.0 176754.0 -14.9522123336792
557904.0 176774.0 -14.835988998413086
557904.0 176794.0 -14.719766616821289
557924.0 176334.0 -14.681991577148438
557924.0 176354.0 -14.655913352966309
557924.0 176374.0 -14.664219856262207
557924.0 176394.0 -14.691035270690918
557924.0 176414.0 -14.717849731445312
557924.0 176434.0 -14.744665145874023
557924.0 176454.0 -14.771479606628418
557924.0 176474.0 -14.755178451538086
557924.0 176494.0 -14.747896194458008
557924.0 176514.0 -14.739672660827637
557924.0 176534.0 -14.750569343566895
557924.0 176554.0 -14.780879974365234
557924.0 176574.0 -14.834990501403809
557924.0 176594.0 -14.892696380615234
557924.0 176614.0 -14.95040225982666
557924.0 176634.0 -15.008108139038086
557924.0 176654.0 -15.065814018249512
557924.0 176674.0 -15.123519897460938
557924.0 176694.0 -15.192411422729492
557924.0 176714.0 -15.151071548461914
557924.0 176734.0 -15.029857635498047
557924.0 176754.0 -14.913634300231934
557924.0 176774.0 -14.79741096496582
557924.0 176794.0 -14.681187629699707
557944.0 176334.0 -14.796599388122559
557944.0 176354.0 -14.757085800170898
557944.0 176374.0 -14.754178047180176
557944.0 176394.0 -14.775548934936523
557944.0 176414.0 -14.806541442871094
557944.0 176434.0 -14.835634231567383
557944.0 176454.0 -14.859892845153809
557944.0 176474.0 -14.848352432250977
557944.0 176494.0 -14.835888862609863
557944.0 176514.0 -14.82342529296875
557944.0 176534.0 -14.810962677001953
557944.0 176554.0 -14.852152824401855
557944.0 176574.0 -14.909858703613281
557944.0 176594.0 -14.967564582824707
557944.0 176614.0 -15.025270462036133
557944.0 176634.0 -15.082976341247559
557944.0 176654.0 -15.140682220458984
557944.0 176674.0 -15.19838809967041
557944.0 176694.0 -15.223725318908691
557944.0 176714.0 -15.107501983642578
557944.0 176734.0 -14.991278648376465
557944.0 176754.0 -14.875055313110352
557944.0 176774.0 -14.758832931518555
557944.0 176794.0 -14.642609596252441
557964.0 176314.0 -14.911839485168457
557964.0 176334.0 -14.874015808105469
557984.0 176314.0 -14.993892669677734
557964.0 176354.0 -14.868008613586426
557984.0 176334.0 -14.981839179992676
557964.0 176374.0 -14.865100860595703
557984.0 176354.0 -14.978931427001953
557964.0 176394.0 -14.855189323425293
557984.0 176374.0 -14.955300331115723
557964.0 176414.0 -14.84143352508545
557984.0 176394.0 -14.861498832702637
557964.0 176434.0 -14.853730201721191
557984.0 176414.0 -14.859966278076172
557964.0 176454.0 -14.921836853027344
557984.0 176434.0 -14.831621170043945
557964.0 176474.0 -14.910619735717773
557984.0 176454.0 -14.959150314331055
557964.0 176494.0 -14.896294593811035
557984.0 176474.0 -14.965352058410645
557964.0 176514.0 -14.881970405578613
557984.0 176494.0 -14.951026916503906
557964.0 176534.0 -14.8541259765625
557984.0 176514.0 -14.930961608886719
557964.0 176554.0 -14.81500244140625
557984.0 176534.0 -14.887055397033691
557964.0 176574.0 -14.876904487609863
557984.0 176554.0 -14.927538871765137
557964.0 176594.0 -14.957934379577637
557984.0 176574.0 -14.969005584716797
557964.0 176614.0 -15.038965225219727
557984.0 176594.0 -14.98953914642334
557964.0 176634.0 -15.11427116394043
557984.0 176614.0 -15.010071754455566
557964.0 176654.0 -15.134804725646973
557984.0 176634.0 -15.03060531616211
557964.0 176674.0 -15.155082702636719
557984.0 176654.0 -15.051138877868652
557964.0 176694.0 -15.147880554199219
557984.0 176674.0 -15.032624244689941
557964.0 176714.0 -15.079730987548828
557984.0 176694.0 -15.027181625366211
557964.0 176734.0 -14.955946922302246
557984.0 176714.0 -15.041869163513184
557964.0 176754.0 -14.836477279663086
557984.0 176734.0 -14.939209938049316
557964.0 176774.0 -14.720253944396973
557984.0 176754.0 -14.815425872802734
557964.0 176794.0 -14.60403060913086
557984.0 176774.0 -14.691640853881836
557984.0 176794.0 -14.567855834960938
558004.0 176294.0 -15.11376953125
558004.0 176314.0 -15.095670700073242
558004.0 176334.0 -15.09276294708252
558004.0 176354.0 -15.054115295410156
558004.0 176374.0 -14.968890190124512
558004.0 176394.0 -14.867809295654297
558004.0 176414.0 -14.84555721282959
558004.0 176434.0 -14.913309097290039
558004.0 176454.0 -14.996463775634766
558004.0 176474.0 -15.0200834274292
558004.0 176494.0 -15.005759239196777
558004.0 176514.0 -14.978547096252441
558004.0 176534.0 -15.012344360351562
558004.0 176554.0 -14.926056861877441
558004.0 176574.0 -14.894037246704102
558004.0 176594.0 -14.9013032913208
558004.0 176614.0 -14.926406860351562
558004.0 176634.0 -14.946939468383789
558004.0 176654.0 -14.93618392944336
558004.0 176674.0 -14.910346031188965
558004.0 176694.0 -14.906482696533203
558004.0 176714.0 -14.940347671508789
558004.0 176734.0 -14.922473907470703
558004.0 176754.0 -14.798689842224121
558004.0 176774.0 -14.674904823303223
558004.0 176794.0 -14.551119804382324
558024.0 176294.0 -15.209501266479492
558024.0 176314.0 -15.20068645477295
558024.0 176334.0 -15.152929306030273
558024.0 176354.0 -15.07628059387207
558024.0 176374.0 -14.975199699401855
558024.0 176394.0 -14.87411880493164
558024.0 176414.0 -14.831148147583008
558024.0 176434.0 -14.920746803283691
558024.0 176454.0 -15.025943756103516
558024.0 176474.0 -15.07481575012207
558024.0 176494.0 -15.070815086364746
558024.0 176514.0 -14.999126434326172
558024.0 176534.0 -14.912339210510254
558024.0 176554.0 -14.847945213317871
558024.0 176574.0 -14.830073356628418
558024.0 176594.0 -14.780933380126953
558024.0 176614.0 -14.810931205749512
558024.0 176634.0 -14.830364227294922
558024.0 176654.0 -14.813725471496582
558024.0 176674.0 -14.78928279876709
558024.0 176694.0 -14.785784721374512
558024.0 176714.0 -14.828930854797363
558024.0 176734.0 -14.832443237304688
558024.0 176754.0 -14.781952857971191
558024.0 176774.0 -14.65816879272461
558024.0 176794.0 -14.534383773803711
558044.0 176274.0 -15.32506275177002
558044.0 176294.0 -15.299501419067383
558044.0 176314.0 -15.25174331665039
558044.0 176334.0 -15.183670997619629
558044.0 176354.0 -15.082590103149414
558044.0 176374.0 -14.981510162353516
558044.0 176394.0 -14.8804292678833
558044.0 176414.0 -14.822988510131836
558044.0 176434.0 -14.92818546295166
558044.0 176454.0 -15.002917289733887
558044.0 176474.0 -15.063762664794922
558044.0 176494.0 -14.98552417755127
558044.0 176514.0 -14.898621559143066
558044.0 176534.0 -14.811717987060547
558044.0 176554.0 -14.783795356750488
558044.0 176574.0 -14.734655380249023
558044.0 176594.0 -14.685515403747559
558044.0 176614.0 -14.677206993103027
558044.0 176634.0 -14.670926094055176
558044.0 176654.0 -14.680279731750488
558044.0 176674.0 -14.668219566345215
558044.0 176694.0 -14.665085792541504
558044.0 176714.0 -14.71178150177002
558044.0 176734.0 -14.731890678405762
558044.0 176754.0 -14.718620300292969
558044.0 176774.0 -14.641432762145996
558044.0 176794.0 -14.517647743225098
558064.0 176274.0 -15.3983154296875
558064.0 176294.0 -15.350557327270508
558064.0 176314.0 -15.291062355041504
558064.0 176334.0 -15.189981460571289
558064.0 176354.0 -15.088900566101074
558064.0 176374.0 -14.991570472717285
558064.0 176394.0 -14.891796112060547
558064.0 176414.0 -14.858417510986328
558064.0 176434.0 -14.917768478393555
558064.0 176454.0 -14.977120399475098
558064.0 176474.0 -14.94970417022705
558064.0 176494.0 -14.881416320800781
558064.0 176514.0 -14.79800033569336
558064.0 176534.0 -14.737517356872559
558064.0 176554.0 -14.688377380371094
558064.0 176574.0 -14.64398193359375
558064.0 176594.0 -14.599756240844727
558064.0 176614.0 -14.601659774780273
558064.0 176634.0 -14.648648262023926
558064.0 176654.0 -14.705121994018555
558064.0 176674.0 -14.669641494750977
558064.0 176694.0 -14.666111946105957
558064.0 176714.0 -14.691816329956055
558064.0 176734.0 -14.70190715789795
558064.0 176754.0 -14.671027183532715
558064.0 176774.0 -14.628726959228516
558064.0 176794.0 -14.542076110839844
558084.0 176254.0 -15.47794246673584
558084.0 176274.0 -15.441390037536621
558084.0 176294.0 -15.398452758789062
558084.0 176314.0 -15.30306339263916
558084.0 176334.0 -15.209381103515625
558084.0 176354.0 -15.115699768066406
558084.0 176374.0 -15.005200386047363
558084.0 176394.0 -14.894207000732422
558084.0 176414.0 -14.919568061828613
558084.0 176434.0 -14.961925506591797
558084.0 176454.0 -14.893637657165527
558084.0 176474.0 -14.825349807739258
558084.0 176494.0 -14.757061958312988
558084.0 176514.0 -14.707076072692871
558084.0 176534.0 -14.64850902557373
558084.0 176554.0 -14.604283332824707
558084.0 176574.0 -14.560057640075684
558084.0 176594.0 -14.532394409179688
558084.0 176614.0 -14.589984893798828
558084.0 176634.0 -14.70993709564209
558084.0 176654.0 -14.748302459716797
558084.0 176674.0 -14.71200180053711
558084.0 176694.0 -14.734321594238281
558084.0 176714.0 -14.814122200012207
558084.0 176734.0 -14.7987642288208
558084.0 176754.0 -14.762042045593262
558084.0 176774.0 -14.719742774963379
558084.0 176794.0 -14.626798629760742
558104.0 176254.0 -15.517019271850586
558104.0 176274.0 -15.489226341247559
558104.0 176294.0 -15.41552448272705
558104.0 176314.0 -15.333510398864746
558104.0 176334.0 -15.229597091674805
558104.0 176354.0 -15.118603706359863
558104.0 176374.0 -15.007611274719238
558104.0 176394.0 -14.921366691589355
558104.0 176414.0 -14.90585994720459
558104.0 176434.0 -14.850470542907715
558104.0 176454.0 -14.8139009475708
558104.0 176474.0 -14.77733039855957
558104.0 176494.0 -14.740760803222656
558104.0 176514.0 -14.673636436462402
558104.0 176534.0 -14.629862785339355
558104.0 176554.0 -14.59939956665039
558104.0 176574.0 -14.485604286193848
558104.0 176594.0 -14.53132152557373
558104.0 176614.0 -14.651273727416992
558104.0 176634.0 -14.771225929260254
558104.0 176654.0 -14.785614013671875
558104.0 176674.0 -14.78021240234375
558104.0 176694.0 -14.852500915527344
558104.0 176714.0 -14.91351318359375
558104.0 176734.0 -14.887918472290039
558104.0 176754.0 -14.852110862731934
558104.0 176774.0 -14.810758590698242
558104.0 176794.0 -14.720688819885254
558124.0 176234.0 -15.59264850616455
558124.0 176254.0 -15.572808265686035
558124.0 176274.0 -15.508757591247559
558124.0 176294.0 -15.430007934570312
558124.0 176314.0 -15.356095314025879
558124.0 176334.0 -15.248095512390137
558124.0 176354.0 -15.140422821044922
558124.0 176374.0 -15.05600357055664
558124.0 176394.0 -14.919586181640625
558124.0 176414.0 -14.883016586303711
558124.0 176434.0 -14.84644603729248
558124.0 176454.0 -14.809876441955566
558124.0 176474.0 -14.773305892944336
558124.0 176494.0 -14.689573287963867
558124.0 176514.0 -14.642786979675293
558124.0 176534.0 -14.596000671386719
558124.0 176554.0 -14.570055961608887
558124.0 176574.0 -14.593750953674316
558124.0 176594.0 -14.600249290466309
558124.0 176614.0 -14.712562561035156
558124.0 176634.0 -14.832514762878418
558124.0 176654.0 -14.826102256774902
558124.0 176674.0 -14.880361557006836
558124.0 176694.0 -14.985326766967773
558124.0 176714.0 -15.012882232666016
558124.0 176734.0 -14.977073669433594
558124.0 176754.0 -14.941265106201172
558124.0 176774.0 -14.901773452758789
558124.0 176794.0 -14.81457805633545
558144.0 176234.0 -15.656391143798828
558144.0 176254.0 -15.60198974609375
558144.0 176274.0 -15.530072212219238
558144.0 176294.0 -15.47939395904541
558144.0 176314.0 -15.373217582702637
558144.0 176334.0 -15.311193466186523
558144.0 176354.0 -15.27204418182373
558144.0 176374.0 -15.172826766967773
558144.0 176394.0 -14.91556167602539
558144.0 176414.0 -14.87899112701416
558144.0 176434.0 -14.842421531677246
558144.0 176454.0 -14.805850982666016
558144.0 176474.0 -14.705511093139648
558144.0 176494.0 -14.658724784851074
558144.0 176514.0 -14.6119384765625
558144.0 176534.0 -14.565152168273926
558144.0 176554.0 -14.518365859985352
558144.0 176574.0 -14.585859298706055
558144.0 176594.0 -14.717572212219238
558144.0 176614.0 -14.77385139465332
558144.0 176634.0 -14.893803596496582
558144.0 176654.0 -14.908221244812012
558144.0 176674.0 -15.01318645477295
558144.0 176694.0 -15.118151664733887
558144.0 176714.0 -15.102036476135254
558144.0 176734.0 -15.066227912902832
558144.0 176754.0 -15.030420303344727
558144.0 176774.0 -14.992789268493652
558144.0 176794.0 -14.908468246459961
558164.0 176214.0 -15.739973068237305
558164.0 176234.0 -15.695222854614258
558164.0 176254.0 -15.6362943649292
558164.0 176274.0 -15.602636337280273
558164.0 176294.0 -15.496517181396484
558164.0 176314.0 -15.436714172363281
558164.0 176334.0 -15.381767272949219
558164.0 176354.0 -15.349966049194336
558164.0 176374.0 -15.274218559265137
558164.0 176394.0 -14.911537170410156
558164.0 176414.0 -14.874966621398926
558164.0 176434.0 -14.838396072387695
558164.0 176454.0 -14.723834037780762
558164.0 176474.0 -14.674662590026855
558164.0 176494.0 -14.627876281738281
558164.0 176514.0 -14.581089973449707
558164.0 176534.0 -14.52297592163086
558164.0 176554.0 -14.475281715393066
558164.0 176574.0 -14.597308158874512
558164.0 176594.0 -14.719335556030273
558164.0 176614.0 -14.841394424438477
558164.0 176634.0 -14.940202713012695
558164.0 176654.0 -15.041046142578125
558164.0 176674.0 -15.146012306213379
558164.0 176694.0 -15.224510192871094
558164.0 176714.0 -15.191190719604492
558164.0 176734.0 -15.155383110046387
558164.0 176754.0 -15.119574546813965
558164.0 176774.0 -15.083765983581543
558164.0 176794.0 -15.001128196716309
558184.0 176214.0 -15.78845500946045
558184.0 176234.0 -15.742515563964844
558184.0 176254.0 -15.724725723266602
558184.0 176274.0 -15.619815826416016
558184.0 176294.0 -15.562234878540039
558184.0 176314.0 -15.507287979125977
558184.0 176334.0 -15.452341079711914
558184.0 176354.0 -15.397395133972168
558184.0 176374.0 -15.33888053894043
558184.0 176394.0 -14.971451759338379
558184.0 176414.0 -14.870942115783691
558184.0 176434.0 -14.759607315063477
558184.0 176454.0 -14.690600395202637
558184.0 176474.0 -14.643814086914062
558184.0 176494.0 -14.580049514770508
558184.0 176514.0 -14.488778114318848
558184.0 176534.0 -14.46095085144043
558184.0 176554.0 -14.502802848815918
558184.0 176574.0 -14.624829292297363
558184.0 176594.0 -14.746855735778809
558184.0 176614.0 -14.873262405395508
558184.0 176634.0 -15.027600288391113
558184.0 176654.0 -15.173871994018555
558184.0 176674.0 -15.278837203979492
558184.0 176694.0 -15.316154479980469
558184.0 176714.0 -15.280345916748047
558184.0 176734.0 -15.244537353515625
558184.0 176754.0 -15.208728790283203
558184.0 176774.0 -15.172921180725098
558184.0 176794.0 -15.036236763000488
558204.0 176194.0 -15.881688117980957
558204.0 176214.0 -15.848737716674805
558204.0 176234.0 -15.830946922302246
558204.0 176254.0 -15.743114471435547
558204.0 176274.0 -15.68775463104248
558204.0 176294.0 -15.632808685302734
558204.0 176314.0 -15.577861785888672
558204.0 176334.0 -15.522915840148926
558204.0 176354.0 -15.454011917114258
558204.0 176374.0 -15.217633247375488
558204.0 176394.0 -14.956298828125
558204.0 176414.0 -14.795380592346191
558204.0 176434.0 -14.706537246704102
558204.0 176454.0 -14.637123107910156
558204.0 176474.0 -14.537542343139648
558204.0 176494.0 -14.475714683532715
558204.0 176514.0 -14.447887420654297
558204.0 176534.0 -14.420060157775879
558204.0 176554.0 -14.530323028564453
558204.0 176574.0 -14.652350425720215
558204.0 176594.0 -14.788806915283203
558204.0 176614.0 -14.943143844604492
558204.0 176634.0 -15.097481727600098
558204.0 176654.0 -15.251819610595703
558204.0 176674.0 -15.406157493591309
558204.0 176694.0 -15.406792640686035
558204.0 176714.0 -15.375946998596191
558204.0 176734.0 -15.345101356506348
558204.0 176754.0 -15.314255714416504
558204.0 176774.0 -15.287281036376953
558204.0 176794.0 -15.065705299377441
558224.0 176194.0 -15.95495891571045
558224.0 176214.0 -15.937169075012207
558224.0 176234.0 -15.8682222366333
558224.0 176254.0 -15.813275337219238
558224.0 176274.0 -15.758328437805176
558224.0 176294.0 -15.700901985168457
558224.0 176314.0 -15.630682945251465
558224.0 176334.0 -15.560462951660156
558224.0 176354.0 -15.449296951293945
558224.0 176374.0 -15.187962532043457
558224.0 176394.0 -14.94926929473877
558224.0 176414.0 -14.71623706817627
558224.0 176434.0 -14.594615936279297
558224.0 176454.0 -14.495035171508789
558224.0 176474.0 -14.462651252746582
558224.0 176494.0 -14.434823989868164
558224.0 176514.0 -14.406996726989746
558224.0 176534.0 -14.43581771850586
558224.0 176554.0 -14.557844161987305
558224.0 176574.0 -14.704350471496582
558224.0 176594.0 -14.858688354492188
558224.0 176614.0 -15.013026237487793
558224.0 176634.0 -15.133451461791992
558224.0 176654.0 -15.23143196105957
558224.0 176674.0 -15.374590873718262
558224.0 176694.0 -15.503057479858398
558224.0 176714.0 -15.506226539611816
558224.0 176734.0 -15.478013038635254
558224.0 176754.0 -15.453505516052246
558224.0 176774.0 -15.318526268005371
558224.0 176794.0 -15.080341339111328
558244.0 176194.0 -16.04339027404785
558244.0 176174.0 -16.061180114746094
558244.0 176214.0 -15.993741989135742
558244.0 176234.0 -15.938796043395996
558244.0 176254.0 -15.877573013305664
558244.0 176274.0 -15.807353019714355
558244.0 176294.0 -15.737133026123047
558244.0 176314.0 -15.666913986206055
558244.0 176334.0 -15.596693992614746
558244.0 176354.0 -15.419626235961914
558244.0 176374.0 -15.17750072479248
558244.0 176394.0 -14.93985366821289
558244.0 176414.0 -14.69898796081543
558244.0 176434.0 -14.460455894470215
558244.0 176454.0 -14.44958782196045
558244.0 176474.0 -14.421760559082031
558244.0 176494.0 -14.393933296203613
558244.0 176514.0 -14.366106033325195
558244.0 176534.0 -14.465557098388672
558244.0 176554.0 -14.619894027709961
558244.0 176574.0 -14.741713523864746
558244.0 176594.0 -14.839694023132324
558244.0 176614.0 -14.937674522399902
558244.0 176634.0 -15.03565502166748
558244.0 176654.0 -15.150464057922363
558244.0 176674.0 -15.344377517700195
558244.0 176694.0 -15.521105766296387
558244.0 176714.0 -15.579005241394043
558244.0 176734.0 -15.619729995727539
558244.0 176754.0 -15.595222473144531
558244.0 176774.0 -15.333163261413574
558244.0 176794.0 -15.094977378845215
557664.0 176814.0 -14.089832305908203
557664.0 176834.0 -14.09106731414795
557684.0 176814.0 -14.169926643371582
557664.0 176854.0 -14.103375434875488
557684.0 176834.0 -14.128361701965332
557664.0 176874.0 -14.115683555603027
557684.0 176854.0 -14.140669822692871
557664.0 176894.0 -14.075406074523926
557684.0 176874.0 -14.15297794342041
557664.0 176914.0 -14.02665901184082
557684.0 176894.0 -14.109675407409668
557664.0 176934.0 -13.987492561340332
557684.0 176914.0 -14.065289497375488
557664.0 176954.0 -13.948325157165527
557684.0 176934.0 -14.026122093200684
557664.0 176974.0 -13.95335578918457
557684.0 176954.0 -13.986955642700195
557664.0 176994.0 -13.986252784729004
557684.0 176974.0 -13.954780578613281
557664.0 177014.0 -13.993966102600098
557684.0 176994.0 -13.978540420532227
557664.0 177034.0 -13.9706449508667
557684.0 177014.0 -13.975089073181152
557664.0 177054.0 -13.877142906188965
557684.0 177034.0 -13.927352905273438
557664.0 177074.0 -13.573625564575195
557684.0 177054.0 -13.718292236328125
557664.0 177094.0 -13.292747497558594
557684.0 177074.0 -13.470746994018555
557664.0 177114.0 -13.19566535949707
557684.0 177094.0 -13.223201751708984
557664.0 177134.0 -13.098583221435547
557684.0 177114.0 -13.043196678161621
557664.0 177154.0 -13.059725761413574
557684.0 177134.0 -13.009770393371582
557664.0 177174.0 -13.089244842529297
557684.0 177154.0 -12.978668212890625
557664.0 177194.0 -13.06431770324707
557684.0 177174.0 -13.090197563171387
557664.0 177214.0 -13.065448760986328
557684.0 177194.0 -13.015556335449219
557664.0 177234.0 -13.16794490814209
557684.0 177214.0 -12.96993637084961
557664.0 177254.0 -13.270441055297852
557684.0 177234.0 -13.058168411254883
557664.0 177274.0 -13.388141632080078
557684.0 177254.0 -13.160664558410645
557664.0 177294.0 -13.51819133758545
557684.0 177274.0 -13.288784980773926
557664.0 177314.0 -13.585174560546875
557684.0 177294.0 -13.418834686279297
557664.0 177334.0 -13.553897857666016
557684.0 177314.0 -13.52453327178955
557664.0 177354.0 -13.78493881225586
557684.0 177334.0 -13.545970916748047
557664.0 177374.0 -14.055852890014648
557684.0 177354.0 -13.816884994506836
557664.0 177394.0 -14.38088607788086
557684.0 177374.0 -14.087800025939941
557664.0 177414.0 -14.890265464782715
557684.0 177394.0 -14.35871410369873
557664.0 177434.0 -15.32903003692627
557684.0 177414.0 -14.81492805480957
557664.0 177454.0 -12.183526992797852
557684.0 177434.0 -13.567320823669434
557664.0 177474.0 -8.577340126037598
557684.0 177454.0 -10.124062538146973
557664.0 177494.0 -5.319327354431152
557684.0 177474.0 -6.663913726806641
557664.0 177514.0 -4.031611442565918
557684.0 177494.0 -4.572094917297363
557664.0 177534.0 -2.9300713539123535
557684.0 177514.0 -3.2665796279907227
557664.0 177554.0 -1.1003732681274414
557684.0 177534.0 -2.160315752029419
557664.0 177574.0 0.213063582777977
557684.0 177554.0 -1.0587754249572754
557664.0 177594.0 -0.23435956239700317
557684.0 177574.0 0.29761120676994324
557664.0 177614.0 -0.5991104245185852
557684.0 177594.0 -0.04378015920519829
557684.0 177614.0 -0.3429258465766907
557704.0 176814.0 -14.252123832702637
557704.0 176834.0 -14.191896438598633
557704.0 176854.0 -14.177964210510254
557704.0 176874.0 -14.190272331237793
557704.0 176894.0 -14.143945693969727
557704.0 176914.0 -14.10391902923584
557704.0 176934.0 -14.064752578735352
557704.0 176954.0 -14.025586128234863
557704.0 176974.0 -13.986199378967285
557704.0 176994.0 -13.960783004760742
557704.0 177014.0 -13.948941230773926
557704.0 177034.0 -13.781573295593262
557704.0 177054.0 -13.569089889526367
557704.0 177074.0 -13.356605529785156
557704.0 177094.0 -13.153715133666992
557704.0 177114.0 -13.051382064819336
557704.0 177134.0 -12.970538139343262
557704.0 177154.0 -12.979620933532715
557704.0 177174.0 -13.09114933013916
557704.0 177194.0 -12.966795921325684
557704.0 177214.0 -12.921175956726074
557704.0 177234.0 -12.94839096069336
557704.0 177254.0 -13.059377670288086
557704.0 177274.0 -13.189428329467773
557704.0 177294.0 -13.319478034973145
557704.0 177314.0 -13.449527740478516
557704.0 177334.0 -13.577917098999023
557704.0 177354.0 -13.848832130432129
557704.0 177374.0 -14.119746208190918
557704.0 177394.0 -14.390661239624023
557704.0 177414.0 -14.69074821472168
557704.0 177434.0 -11.44221019744873
557704.0 177454.0 -8.193673133850098
557704.0 177474.0 -5.465425968170166
557704.0 177494.0 -4.0041890144348145
557704.0 177514.0 -2.539774179458618
557704.0 177534.0 -1.4469724893569946
557704.0 177554.0 -0.3934621810913086
557704.0 177574.0 0.3752218186855316
557704.0 177594.0 0.13259144127368927
557704.0 177614.0 -0.05501442402601242
557724.0 176814.0 -14.334320068359375
557724.0 176834.0 -14.25703239440918
557724.0 176854.0 -14.215259552001953
557724.0 176894.0 -14.181715965270996
557724.0 176874.0 -14.227567672729492
557724.0 176914.0 -14.142549514770508
557724.0 176934.0 -14.10338306427002
557724.0 176954.0 -14.043478965759277
557724.0 176974.0 -13.984210968017578
557724.0 176994.0 -13.98063850402832
557724.0 177014.0 -13.96346664428711
557724.0 177034.0 -13.750983238220215
557724.0 177054.0 -13.545551300048828
557724.0 177074.0 -13.344008445739746
557724.0 177094.0 -13.162063598632812
557724.0 177114.0 -13.100769996643066
557724.0 177134.0 -13.019926071166992
557724.0 177154.0 -13.112458229064941
557724.0 177174.0 -13.093596458435059
557724.0 177194.0 -12.965084075927734
557724.0 177214.0 -12.872414588928223
557724.0 177234.0 -12.838613510131836
557724.0 177254.0 -12.960021018981934
557724.0 177274.0 -13.090071678161621
557724.0 177294.0 -13.220121383666992
557724.0 177314.0 -13.367621421813965
557724.0 177334.0 -13.536835670471191
557724.0 177354.0 -13.776615142822266
557724.0 177374.0 -14.016393661499023
557724.0 177394.0 -14.256172180175781
557724.0 177414.0 -14.092340469360352
557724.0 177434.0 -11.13427448272705
557724.0 177454.0 -8.112424850463867
557724.0 177474.0 -5.259882926940918
557724.0 177494.0 -3.9944489002227783
557724.0 177514.0 -2.7290146350860596
557724.0 177534.0 -1.609623908996582
557724.0 177554.0 -0.5195257067680359
557724.0 177574.0 0.32538583874702454
557724.0 177594.0 0.17658500373363495
557724.0 177614.0 0.02778415009379387
557744.0 176814.0 -14.415633201599121
557744.0 176834.0 -14.31845474243164
557744.0 176854.0 -14.289464950561523
557744.0 176894.0 -14.220346450805664
557744.0 176874.0 -14.261927604675293
557744.0 176914.0 -14.174798011779785
557744.0 176934.0 -14.098479270935059
557744.0 176954.0 -14.040925979614258
557744.0 176974.0 -13.997822761535645
557744.0 176994.0 -13.994250297546387
557744.0 177014.0 -13.937387466430664
557744.0 177034.0 -13.735844612121582
557744.0 177054.0 -13.5343017578125
557744.0 177074.0 -13.332758903503418
557744.0 177094.0 -13.216024398803711
557744.0 177114.0 -13.15015697479248
557744.0 177134.0 -13.142433166503906
557744.0 177154.0 -13.248618125915527
557744.0 177174.0 -13.20649242401123
557744.0 177194.0 -13.096517562866211
557744.0 177214.0 -12.986542701721191
557744.0 177234.0 -12.862678527832031
557744.0 177254.0 -12.945530891418457
557744.0 177274.0 -13.092801094055176
557744.0 177294.0 -13.243552207946777
557744.0 177314.0 -13.400192260742188
557744.0 177334.0 -13.422294616699219
557744.0 177354.0 -13.5315523147583
557744.0 177374.0 -13.771330833435059
557744.0 177394.0 -14.011110305786133
557744.0 177414.0 -13.90729808807373
557744.0 177434.0 -11.608084678649902
557744.0 177454.0 -8.683961868286133
557744.0 177474.0 -5.7985429763793945
557744.0 177494.0 -4.5426201820373535
557744.0 177514.0 -3.2866971492767334
557744.0 177534.0 -2.181309461593628
557744.0 177554.0 -0.9934635162353516
557744.0 177574.0 -0.1425086259841919
557744.0 177594.0 -0.16394197940826416
557744.0 177614.0 -0.1212570071220398
557764.0 176814.0 -14.48249626159668
557764.0 176834.0 -14.368980407714844
557764.0 176854.0 -14.331404685974121
557764.0 176894.0 -14.240645408630371
557764.0 176874.0 -14.284001350402832
557764.0 176914.0 -14.155095100402832
557764.0 176934.0 -14.109268188476562
557764.0 176954.0 -14.018113136291504
557764.0 176974.0 -14.003559112548828
557764.0 176994.0 -13.852821350097656
557764.0 177014.0 -13.83000373840332
557764.0 177034.0 -13.724595069885254
557764.0 177054.0 -13.523052215576172
557764.0 177074.0 -13.32150936126709
557764.0 177094.0 -13.269984245300293
557764.0 177114.0 -13.199543952941895
557764.0 177134.0 -13.270241737365723
557764.0 177154.0 -13.384031295776367
557764.0 177174.0 -13.33792495727539
557764.0 177194.0 -13.227950096130371
557764.0 177214.0 -13.111459732055664
557764.0 177234.0 -12.983270645141602
557764.0 177254.0 -12.99056339263916
557764.0 177274.0 -13.134760856628418
557764.0 177294.0 -13.278958320617676
557764.0 177314.0 -13.393988609313965
557764.0 177334.0 -13.427077293395996
557764.0 177354.0 -13.449179649353027
557764.0 177374.0 -13.52626895904541
557764.0 177394.0 -13.766047477722168
557764.0 177414.0 -13.516424179077148
557764.0 177434.0 -12.047952651977539
557764.0 177454.0 -9.12382984161377
557764.0 177474.0 -6.280187606811523
557764.0 177494.0 -5.055884838104248
557764.0 177514.0 -3.8425791263580322
557764.0 177534.0 -2.5452370643615723
557764.0 177554.0 -1.371501088142395
557764.0 177574.0 -0.579954981803894
557764.0 177594.0 -0.6841104030609131
557764.0 177614.0 -0.6536310911178589
557784.0 176814.0 -14.528850555419922
557784.0 176834.0 -14.416427612304688
557784.0 176854.0 -14.334997177124023
557784.0 176894.0 -14.20898723602295
557784.0 176874.0 -14.264667510986328
557784.0 176914.0 -14.140358924865723
557784.0 176934.0 -14.0731840133667
557784.0 176954.0 -13.951780319213867
557784.0 176974.0 -13.792106628417969
557784.0 176994.0 -13.584848403930664
557784.0 177014.0 -13.659375190734863
557784.0 177034.0 -13.713345527648926
557784.0 177054.0 -13.511802673339844
557784.0 177074.0 -13.35798454284668
557784.0 177094.0 -13.323944091796875
557784.0 177114.0 -13.284258842468262
557784.0 177134.0 -13.398049354553223
557784.0 177154.0 -13.511838912963867
557784.0 177174.0 -13.469358444213867
557784.0 177194.0 -13.3512544631958
557784.0 177214.0 -13.229206085205078
557784.0 177234.0 -13.103863716125488
557784.0 177254.0 -13.061280250549316
557784.0 177274.0 -13.179794311523438
557784.0 177294.0 -13.323991775512695
557784.0 177314.0 -13.38532829284668
557784.0 177334.0 -13.361185073852539
557784.0 177354.0 -13.40683650970459
557784.0 177374.0 -13.45248794555664
557784.0 177394.0 -13.423312187194824
557784.0 177414.0 -13.12554931640625
557784.0 177434.0 -12.487820625305176
557784.0 177454.0 -9.66361141204834
557784.0 177474.0 -6.952010154724121
557784.0 177494.0 -5.471278190612793
557784.0 177514.0 -4.097010612487793
557784.0 177534.0 -3.1056933403015137
557784.0 177554.0 -1.7607872486114502
557784.0 177574.0 -1.1087172031402588
557784.0 177594.0 -1.1215567588806152
557784.0 177614.0 -1.1860051155090332
557804.0 176814.0 -14.546784400939941
557804.0 176834.0 -14.463875770568848
557804.0 176854.0 -14.33858871459961
557804.0 176894.0 -14.177200317382812
557804.0 176874.0 -14.24533462524414
557804.0 176914.0 -14.111824989318848
557804.0 176934.0 -14.01173210144043
557804.0 176954.0 -13.748159408569336
557804.0 176974.0 -13.501119613647461
557804.0 176994.0 -13.31824779510498
557804.0 177014.0 -13.481022834777832
557804.0 177034.0 -13.564824104309082
557804.0 177054.0 -13.500553131103516
557804.0 177074.0 -13.411944389343262
557804.0 177094.0 -13.377903938293457
557804.0 177114.0 -13.412067413330078
557804.0 177134.0 -13.525856971740723
557804.0 177154.0 -13.636689186096191
557804.0 177174.0 -13.591048240661621
557804.0 177194.0 -13.470211029052734
557804.0 177214.0 -13.303540229797363
557804.0 177234.0 -13.224456787109375
557804.0 177254.0 -13.181873321533203
557804.0 177274.0 -13.224827766418457
557804.0 177294.0 -13.369025230407715
557804.0 177314.0 -13.377239227294922
557804.0 177334.0 -13.349737167358398
557804.0 177354.0 -13.32838249206543
557804.0 177374.0 -13.37403392791748
557804.0 177394.0 -13.242463111877441
557804.0 177414.0 -12.890945434570312
557804.0 177434.0 -11.817107200622559
557804.0 177454.0 -9.443161964416504
557804.0 177474.0 -7.249340057373047
557804.0 177494.0 -5.7550153732299805
557804.0 177514.0 -4.657466888427734
557804.0 177534.0 -3.5211730003356934
557804.0 177554.0 -2.343749523162842
557804.0 177574.0 -1.742426872253418
557804.0 177594.0 -1.7624711990356445
557804.0 177614.0 -1.6631584167480469
557824.0 176814.0 -14.564718246459961
557824.0 176834.0 -14.457528114318848
557824.0 176854.0 -14.342180252075195
557824.0 176894.0 -14.129369735717773
557824.0 176874.0 -14.226000785827637
557824.0 176914.0 -14.074951171875
557824.0 176934.0 -13.950281143188477
557824.0 176954.0 -13.60053825378418
557824.0 176974.0 -13.244162559509277
557824.0 176994.0 -13.120195388793945
557824.0 177014.0 -13.230002403259277
557824.0 177034.0 -13.341817855834961
557824.0 177054.0 -13.488222122192383
557824.0 177074.0 -13.465904235839844
557824.0 177094.0 -13.428548812866211
557824.0 177114.0 -13.52828311920166
557824.0 177134.0 -13.621045112609863
557824.0 177154.0 -13.731871604919434
557824.0 177174.0 -13.710005760192871
557824.0 177194.0 -13.589167594909668
557824.0 177214.0 -13.387632369995117
557824.0 177234.0 -13.345048904418945
557824.0 177254.0 -13.302465438842773
557824.0 177274.0 -13.26986026763916
557824.0 177294.0 -13.396652221679688
557824.0 177314.0 -13.369150161743164
557824.0 177334.0 -13.34164810180664
557824.0 177354.0 -13.314146041870117
557824.0 177374.0 -13.29557991027832
557824.0 177394.0 -12.792204856872559
557824.0 177414.0 -11.371804237365723
557824.0 177434.0 -9.95140266418457
557824.0 177454.0 -8.357684135437012
557824.0 177474.0 -6.1883225440979
557824.0 177494.0 -5.134511470794678
557824.0 177514.0 -4.351415634155273
557824.0 177534.0 -3.4497287273406982
557824.0 177554.0 -2.481903553009033
557824.0 177574.0 -2.2764785289764404
557824.0 177594.0 -2.2665178775787354
557824.0 177614.0 -2.386794328689575
557844.0 176814.0 -14.58265209197998
557844.0 176834.0 -14.446769714355469
557844.0 176854.0 -14.314186096191406
557844.0 176894.0 -14.086767196655273
557844.0 176874.0 -14.201412200927734
557844.0 176914.0 -14.01182746887207
557844.0 176934.0 -13.80929183959961
557844.0 176954.0 -13.452916145324707
557844.0 176974.0 -13.114450454711914
557844.0 176994.0 -13.041767120361328
557844.0 177014.0 -13.187512397766113
557844.0 177034.0 -13.333256721496582
557844.0 177054.0 -13.47750186920166
557844.0 177074.0 -13.462950706481934
557844.0 177094.0 -13.51438045501709
