558104.0 176514.0 2.4000000953674316
558104.0 176534.0 2.4000000953674316
558104.0 176554.0 2.461874485015869
558104.0 176574.0 2.5
558104.0 176594.0 2.4879682064056396
558104.0 176614.0 2.361874580383301
558104.0 176634.0 2.1879687309265137
558104.0 176654.0 1.8879685401916504
558104.0 176674.0 1.6879693269729614
558104.0 176694.0 1.5260000228881836
558104.0 176714.0 1.4879692792892456
558104.0 176734.0 1.399999976158142
558104.0 176754.0 1.0943310260772705
558104.0 176774.0 0.7389135956764221
558104.0 176794.0 0.38800591230392456
558124.0 176254.0 0.0
558124.0 176234.0 0.0
558124.0 176274.0 -4.329999967467302E-7
558124.0 176294.0 -2.0000000233721948E-7
558124.0 176314.0 0.0
558124.0 176334.0 0.0
558124.0 176354.0 -1.3000000365082087E-7
558124.0 176374.0 1.0257272720336914
558124.0 176394.0 1.59214186668396
558124.0 176414.0 2.3259999752044678
558124.0 176434.0 2.125999927520752
558124.0 176454.0 2.111999988555908
558124.0 176474.0 2.1999998092651367
558124.0 176494.0 2.312000036239624
558124.0 176514.0 2.3999998569488525
558124.0 176534.0 2.4000000953674316
558124.0 176554.0 2.437999963760376
558124.0 176574.0 2.4619998931884766
558124.0 176594.0 2.3380000591278076
558124.0 176614.0 2.2260000705718994
558124.0 176634.0 2.0260000228881836
558124.0 176654.0 1.8140000104904175
558124.0 176674.0 1.5260000228881836
558124.0 176694.0 1.437999963760376
558124.0 176714.0 1.5
558124.0 176734.0 1.3845456838607788
558124.0 176754.0 0.9671335816383362
558124.0 176774.0 0.616226315498352
558124.0 176794.0 0.2653183937072754
558144.0 176234.0 0.0
558144.0 176254.0 0.0
558144.0 176274.0 0.0
558144.0 176294.0 -2.999999537678377E-8
558144.0 176314.0 -4.3000000005122274E-7
558144.0 176334.0 0.0
558144.0 176354.0 0.37296876311302185
558144.0 176374.0 0.890796422958374
558144.0 176394.0 3.025076389312744
558144.0 176414.0 2.200000047683716
558144.0 176434.0 2.099999189376831
558144.0 176454.0 2.0999996662139893
558144.0 176474.0 2.138000011444092
558144.0 176494.0 2.23799991607666
558144.0 176514.0 2.23799991607666
558144.0 176534.0 2.23799991607666
558144.0 176554.0 2.23799991607666
558144.0 176574.0 2.138000011444092
558144.0 176594.0 2.138000011444092
558144.0 176614.0 2.0380001068115234
558144.0 176634.0 1.8259999752044678
558144.0 176654.0 1.5520000457763672
558144.0 176674.0 1.3380000591278076
558144.0 176694.0 1.25
558144.0 176714.0 1.2760000228881836
558144.0 176734.0 1.1550428867340088
558144.0 176754.0 0.8831828832626343
558144.0 176774.0 0.49353811144828796
558144.0 176794.0 0.14263029396533966
558164.0 176234.0 -3.000000106112566E-7
558164.0 176214.0 0.0
558164.0 176254.0 0.0
558164.0 176274.0 0.0
558164.0 176294.0 0.0
558164.0 176314.0 0.0
558164.0 176334.0 0.0
558164.0 176354.0 0.2538689076900482
558164.0 176374.0 1.01023530960083
558164.0 176394.0 2.177999973297119
558164.0 176414.0 1.937999963760376
558164.0 176434.0 1.9500000476837158
558164.0 176454.0 2.0380001068115234
558164.0 176474.0 2.063999891281128
558164.0 176494.0 2.124000072479248
558164.0 176514.0 2.138000011444092
558164.0 176534.0 2.138000011444092
558164.0 176554.0 2.0380001068115234
558164.0 176574.0 2.0
558164.0 176594.0 1.937999963760376
558164.0 176614.0 1.9259999990463257
558164.0 176634.0 1.6759370565414429
558164.0 176654.0 1.375937819480896
558164.0 176674.0 1.2000000476837158
558164.0 176694.0 1.0879690647125244
558164.0 176714.0 1.0
558164.0 176734.0 0.791109025478363
558164.0 176754.0 0.5379348993301392
558164.0 176774.0 0.28476160764694214
558164.0 176794.0 0.022491270676255226
558184.0 176214.0 0.0
558184.0 176234.0 -5.900000132896821E-7
558184.0 176254.0 -4.500000159168849E-7
558184.0 176274.0 -5.000000058430487E-8
558184.0 176294.0 -1.3999999737279722E-7
558184.0 176314.0 -5.99999978589949E-8
558184.0 176334.0 0.8316934704780579
558184.0 176354.0 0.38105693459510803
558184.0 176374.0 2.102285146713257
558184.0 176394.0 0.9834180474281311
558184.0 176414.0 1.7547394037246704
558184.0 176434.0 1.8380000591278076
558184.0 176454.0 1.8380000591278076
558184.0 176474.0 1.8380000591278076
558184.0 176494.0 1.8760000467300415
558184.0 176514.0 1.937999963760376
558184.0 176534.0 1.937999963760376
558184.0 176554.0 1.9259999990463257
558184.0 176574.0 1.8380000591278076
558184.0 176594.0 1.8380000591278076
558184.0 176614.0 1.7999999523162842
558184.0 176634.0 1.7378127574920654
558184.0 176654.0 1.3498436212539673
558184.0 176674.0 1.2000000476837158
558184.0 176694.0 1.0879687070846558
558184.0 176714.0 0.9238539338111877
558184.0 176734.0 0.6303468942642212
558184.0 176754.0 0.31764209270477295
558184.0 176774.0 0.004937800113111734
558184.0 176794.0 -0.021678699180483818
558204.0 176214.0 -1.1000000199601345E-7
558204.0 176194.0 -2.350000016804188E-7
558204.0 176234.0 -1.3999999737279722E-7
558204.0 176254.0 0.0
558204.0 176274.0 -3.000000106112566E-7
558204.0 176294.0 -3.069999934268708E-7
558204.0 176314.0 -3.39999985499162E-7
558204.0 176334.0 0.5304479002952576
558204.0 176354.0 0.8122296929359436
558204.0 176374.0 0.6524174809455872
558204.0 176394.0 0.30915069580078125
558204.0 176414.0 0.9847654104232788
558204.0 176434.0 1.7259999513626099
558204.0 176454.0 1.6380000114440918
558204.0 176474.0 1.6380000114440918
558204.0 176494.0 1.6380000114440918
558204.0 176514.0 1.687999963760376
558204.0 176534.0 1.7380000352859497
558204.0 176554.0 1.6380000114440918
558204.0 176574.0 1.6380000114440918
558204.0 176594.0 1.812000036239624
558204.0 176614.0 1.7999993562698364
558204.0 176634.0 1.7139999866485596
558204.0 176654.0 1.3879683017730713
558204.0 176674.0 1.2618749141693115
558204.0 176694.0 1.087968349456787
558204.0 176714.0 0.6653944253921509
558204.0 176734.0 0.2832757532596588
558204.0 176754.0 -0.029429059475660324
558204.0 176774.0 -0.14117424190044403
558204.0 176794.0 -0.07460509985685349
558224.0 176194.0 0.0
558224.0 176214.0 0.0
558224.0 176234.0 0.0
558224.0 176254.0 0.0
558224.0 176274.0 0.0
558224.0 176294.0 0.0
558224.0 176314.0 2.5322272777557373
558224.0 176334.0 0.9063348770141602
558224.0 176354.0 1.0452557802200317
558224.0 176374.0 0.8804211020469666
558224.0 176394.0 0.7516871690750122
558224.0 176414.0 0.5873126983642578
558224.0 176434.0 1.0355565547943115
558224.0 176454.0 1.437999963760376
558224.0 176474.0 1.437999963760376
558224.0 176494.0 1.437999963760376
558224.0 176514.0 1.437999963760376
558224.0 176534.0 1.437999963760376
558224.0 176554.0 1.5379999876022339
558224.0 176574.0 1.6119999885559082
558224.0 176594.0 1.7000000476837158
558224.0 176614.0 1.75
558224.0 176634.0 1.6139999628067017
558224.0 176654.0 1.387968897819519
558224.0 176674.0 1.287968635559082
558224.0 176694.0 1.0879687070846558
558224.0 176714.0 0.13040439784526825
558224.0 176734.0 -0.06379559636116028
558224.0 176754.0 -0.2605710029602051
558224.0 176774.0 -0.1941457986831665
558224.0 176794.0 -0.12753170728683472
558244.0 176214.0 0.0
558244.0 176194.0 0.0
558244.0 176234.0 -1.0000000116860974E-7
558244.0 176254.0 0.0
558244.0 176274.0 -2.900000239947076E-8
558244.0 176294.0 3.09999942779541
558244.0 176314.0 0.9013217091560364
558244.0 176334.0 1.603203535079956
558244.0 176354.0 0.32988834381103516
558244.0 176374.0 0.41510477662086487
558244.0 176394.0 0.38915252685546875
558244.0 176414.0 0.36320024728775024
558244.0 176434.0 0.3372477889060974
558244.0 176454.0 0.8716530799865723
558244.0 176474.0 1.2380000352859497
558244.0 176494.0 1.2380000352859497
558244.0 176514.0 1.1759999990463257
558244.0 176534.0 1.2380000352859497
558244.0 176554.0 1.350000023841858
558244.0 176574.0 1.4500000476837158
558244.0 176594.0 1.6260000467300415
558244.0 176614.0 1.600000023841858
558244.0 176634.0 1.5879689455032349
558244.0 176654.0 1.3999998569488525
558244.0 176674.0 1.2879688739776611
558244.0 176694.0 1.0749468803405762
558244.0 176714.0 0.16885890066623688
558244.0 176734.0 -0.3799678385257721
558244.0 176754.0 -0.3135940432548523
558244.0 176774.0 -0.24707239866256714
558244.0 176794.0 -0.18045830726623535
557664.0 176814.0 0.8342729806900024
557664.0 176834.0 0.7865636944770813
557684.0 176814.0 0.7523887157440186
557664.0 176854.0 0.7565941214561462
557684.0 176834.0 0.6839010715484619
557664.0 176874.0 0.7266235947608948
557684.0 176854.0 0.6539310216903687
557664.0 176894.0 0.6966540813446045
557684.0 176874.0 0.6239616274833679
557664.0 176914.0 0.6630979776382446
557684.0 176894.0 0.5939285755157471
557664.0 176934.0 0.6278486847877502
557684.0 176914.0 0.5586794018745422
557664.0 176954.0 0.5926007032394409
557684.0 176934.0 0.5234310030937195
557664.0 176974.0 0.4960131049156189
557684.0 176954.0 0.4881821870803833
557664.0 176994.0 0.5357152223587036
557684.0 176974.0 0.4373947083950043
557664.0 177014.0 0.6808127164840698
557684.0 176994.0 0.4991067945957184
557664.0 177034.0 0.7585231065750122
557684.0 177014.0 0.5544588565826416
557664.0 177054.0 0.3473093509674072
557684.0 177034.0 0.4883502125740051
557664.0 177074.0 0.2500000596046448
557684.0 177054.0 0.2980614900588989
557664.0 177094.0 0.28340834379196167
557684.0 177074.0 0.2063833326101303
557664.0 177114.0 0.1349651962518692
557684.0 177094.0 0.1147054135799408
557664.0 177134.0 -0.13580529391765594
557684.0 177114.0 -0.003333200002089143
557664.0 177154.0 -0.27073410153388977
557684.0 177134.0 -0.13133889436721802
557664.0 177174.0 -0.4790171980857849
557684.0 177154.0 -0.33388689160346985
557664.0 177194.0 -0.4848319888114929
557684.0 177174.0 -0.49578630924224854
557664.0 177214.0 -0.5048636794090271
557684.0 177194.0 -0.47148820757865906
557664.0 177234.0 -0.47642645239830017
557684.0 177214.0 -0.5124791860580444
557664.0 177254.0 -0.44798919558525085
557684.0 177234.0 -0.48958128690719604
557664.0 177274.0 -0.41955190896987915
557684.0 177254.0 -0.46114426851272583
557664.0 177294.0 -0.39111390709877014
557684.0 177274.0 -0.4327070116996765
557664.0 177314.0 -0.36267760396003723
557684.0 177294.0 -0.40427011251449585
557664.0 177334.0 -0.3608829975128174
557684.0 177314.0 -0.43099018931388855
557664.0 177354.0 -0.4203115403652191
557684.0 177334.0 -0.46417179703712463
557664.0 177374.0 -0.4847557544708252
557684.0 177354.0 -0.47487568855285645
557664.0 177394.0 -0.4946011006832123
557684.0 177374.0 -0.4989742934703827
557664.0 177414.0 -0.4905419647693634
557684.0 177394.0 -0.5818256139755249
557664.0 177434.0 -0.4478454887866974
557684.0 177414.0 -0.6031916737556458
557664.0 177454.0 -0.4604179859161377
557684.0 177434.0 -0.5892919898033142
557664.0 177474.0 -0.4139600694179535
557684.0 177454.0 -0.4840374290943146
557664.0 177494.0 -0.290861576795578
557684.0 177474.0 -0.3609379529953003
557664.0 177514.0 -0.16776281595230103
557684.0 177494.0 -0.23783938586711884
557664.0 177534.0 -0.10774502903223038
557684.0 177514.0 -0.11474037170410156
557664.0 177554.0 0.04114704951643944
557684.0 177534.0 -0.07386481761932373
557684.0 177554.0 0.1447380930185318
557704.0 176814.0 0.660116970539093
557704.0 176834.0 0.6073583960533142
557704.0 176854.0 0.5512688755989075
557704.0 176874.0 0.5212991237640381
557704.0 177134.0 -0.19479280710220337
557704.0 176914.0 0.4542613923549652
557704.0 176934.0 0.4190123975276947
557704.0 176954.0 0.38376420736312866
557704.0 176974.0 0.3492445945739746
557704.0 176994.0 0.37694090604782104
557704.0 177014.0 0.43789389729499817
557704.0 177034.0 0.33672478795051575
557704.0 177054.0 0.2090926617383957
557704.0 177074.0 0.030061250552535057
557704.0 177094.0 -0.020131370052695274
557704.0 177114.0 -0.08388371020555496
557704.0 177134.0 -0.19479280710220337
557704.0 177154.0 -0.39704111218452454
557704.0 177174.0 -0.44414299726486206
557704.0 177194.0 -0.45814529061317444
557704.0 177214.0 -0.4991368055343628
557704.0 177234.0 -0.5027366280555725
557704.0 177254.0 -0.47429990768432617
557704.0 177274.0 -0.4502815902233124
557704.0 177294.0 -0.4960770905017853
557704.0 177314.0 -0.5418729782104492
557704.0 177334.0 -0.5674604773521423
557704.0 177354.0 -0.5781643986701965
557704.0 177374.0 -0.5888687968254089
557704.0 177394.0 -0.5995733737945557
557704.0 177414.0 -0.6581478118896484
557704.0 177434.0 -0.5541132092475891
557704.0 177454.0 -0.43101438879966736
557704.0 177474.0 -0.30791589617729187
557704.0 177494.0 -0.18481695652008057
557704.0 177514.0 -0.07013033330440521
557704.0 177534.0 0.02075120061635971
557704.0 177554.0 0.24832898378372192
557724.0 176814.0 0.5678457617759705
557724.0 176834.0 0.5567914843559265
557724.0 176854.0 0.4486052989959717
557724.0 176894.0 0.385091096162796
557724.0 176874.0 0.41863539814949036
557724.0 176914.0 0.34984320402145386
557724.0 176934.0 0.3145942986011505
557724.0 176954.0 0.29912859201431274
557724.0 176974.0 0.2700836956501007
557724.0 176994.0 0.12374520301818848
557724.0 177014.0 0.22979579865932465
557724.0 177034.0 0.05076489970088005
557724.0 177054.0 -0.08531814068555832
557724.0 177074.0 -0.10744869709014893
557724.0 177094.0 -0.12957972288131714
557724.0 177114.0 -0.20268866419792175
557724.0 177134.0 -0.28698399662971497
557724.0 177154.0 -0.4778977036476135
557724.0 177174.0 -0.46969670057296753
557724.0 177194.0 -0.4715299904346466
557724.0 177214.0 -0.4857943058013916
557724.0 177234.0 -0.5158913731575012
557724.0 177254.0 -0.5153687000274658
557724.0 177274.0 -0.558967113494873
557724.0 177294.0 -0.5859450101852417
557724.0 177314.0 -0.6129239797592163
557724.0 177334.0 -0.5879992842674255
557724.0 177354.0 -0.5963419079780579
557724.0 177374.0 -0.6046857237815857
557724.0 177394.0 -0.6130282282829285
557724.0 177414.0 -0.6134898066520691
557724.0 177434.0 -0.5010913014411926
557724.0 177454.0 -0.37799257040023804
557724.0 177474.0 -0.2548936605453491
557724.0 177494.0 -0.13179482519626617
557724.0 177514.0 -0.03625013679265976
557724.0 177534.0 0.12883000075817108
557724.0 177554.0 0.35191982984542847
557744.0 176814.0 0.49067479372024536
557744.0 176834.0 0.5063790678977966
557744.0 176854.0 0.38064780831336975
557744.0 176894.0 0.2806735038757324
557744.0 176874.0 0.31592169404029846
557744.0 176914.0 0.26169660687446594
557744.0 176934.0 0.2505235970020294
557744.0 176954.0 0.2503381073474884
557744.0 176974.0 0.14940759539604187
557744.0 176994.0 -0.029538700357079506
557744.0 177014.0 -0.10756190121173859
557744.0 177034.0 -0.1726371943950653
557744.0 177054.0 -0.19476699829101562
557744.0 177074.0 -0.21689705550670624
557744.0 177094.0 -0.23751184344291687
557744.0 177114.0 -0.32157495617866516
557744.0 177134.0 -0.405911386013031
557744.0 177154.0 -0.5592008233070374
557744.0 177174.0 -0.5701295733451843
557744.0 177194.0 -0.5719640254974365
557744.0 177214.0 -0.573796272277832
557744.0 177234.0 -0.5689675807952881
557744.0 177254.0 -0.5582996010780334
557744.0 177274.0 -0.5935460925102234
557744.0 177294.0 -0.6205242872238159
557744.0 177314.0 -0.6437737941741943
557744.0 177334.0 -0.6012822985649109
557744.0 177354.0 -0.565555214881897
557744.0 177374.0 -0.5738990902900696
557744.0 177394.0 -0.5822415947914124
557744.0 177414.0 -0.5852659940719604
557744.0 177434.0 -0.48742252588272095
557744.0 177454.0 -0.32497018575668335
557744.0 177474.0 -0.20187115669250488
557744.0 177494.0 -0.0787724032998085
557744.0 177514.0 -0.0015275550540536642
557744.0 177534.0 0.2369088977575302
557744.0 177554.0 0.45551079511642456
557764.0 176814.0 0.4969409108161926
557764.0 176834.0 0.39310160279273987
557764.0 176854.0 0.29334506392478943
557764.0 176894.0 0.20949779450893402
557764.0 176874.0 0.22043369710445404
557764.0 176914.0 0.19948099553585052
557764.0 176934.0 0.18421320617198944
557764.0 176954.0 0.17560650408267975
557764.0 176974.0 -0.023023299872875214
557764.0 176994.0 -0.20083649456501007
557764.0 177014.0 -0.2938345968723297
557764.0 177034.0 -0.28208449482917786
557764.0 177054.0 -0.30421480536460876
557764.0 177074.0 -0.3263446092605591
557764.0 177094.0 -0.3563168942928314
557764.0 177114.0 -0.44050243496894836
557764.0 177134.0 -0.5248396396636963
557764.0 177154.0 -0.6405041813850403
557764.0 177174.0 -0.670563817024231
557764.0 177194.0 -0.672396183013916
557764.0 177214.0 -0.6822682023048401
557764.0 177234.0 -0.6532855033874512
557764.0 177254.0 -0.5492910742759705
557764.0 177274.0 -0.5918371081352234
557764.0 177294.0 -0.6343821883201599
557764.0 177314.0 -0.4886226952075958
557764.0 177334.0 -0.6188790202140808
557764.0 177354.0 -0.5763878226280212
557764.0 177374.0 -0.5431120991706848
557764.0 177394.0 -0.534641683101654
557764.0 177414.0 -0.5470744967460632
557764.0 177434.0 -0.46739450097084045
557764.0 177454.0 -0.3164060115814209
557764.0 177474.0 -0.14884896576404572
557764.0 177494.0 -0.025750460103154182
557764.0 177514.0 0.10655120015144348
557764.0 177534.0 0.344987690448761
557764.0 177554.0 0.5767186880111694
557744.0 177574.0 0.7648248672485352
557764.0 177574.0 0.9065179824829102
557784.0 176814.0 0.3687783479690552
557784.0 176834.0 0.27435165643692017
557784.0 176854.0 0.17029446363449097
557784.0 176894.0 0.11546800285577774
557784.0 176874.0 0.12497907131910324
557784.0 176914.0 0.0856034979224205
557784.0 176934.0 0.08054330199956894
557784.0 176954.0 -0.006629100069403648
557784.0 176974.0 -0.23733900487422943
557784.0 176994.0 -0.4451369047164917
557784.0 177014.0 -0.6529322266578674
557784.0 177034.0 -0.41496649384498596
557784.0 177054.0 -0.413663387298584
557784.0 177074.0 -0.43579378724098206
557784.0 177094.0 -0.47512200474739075
557784.0 177114.0 -0.5594301819801331
557784.0 177134.0 -0.6437664031982422
557784.0 177154.0 -0.7281036376953125
557784.0 177174.0 -0.7709963321685791
557784.0 177194.0 -0.7820910215377808
557784.0 177214.0 -0.7957233786582947
557784.0 177234.0 -0.7376034259796143
557784.0 177254.0 -0.6296238899230957
557784.0 177274.0 -0.5828279852867126
557784.0 177294.0 -0.6253741979598999
557784.0 177314.0 -0.5255382061004639
557784.0 177334.0 -0.5255843997001648
557784.0 177354.0 -0.5256307721138
557784.0 177374.0 -0.5256767868995667
557784.0 177394.0 -0.46190351247787476
557784.0 177414.0 -0.5088831186294556
557784.0 177434.0 -0.46626290678977966
557784.0 177454.0 -0.32242923974990845
557784.0 177474.0 -0.09582631289958954
557784.0 177494.0 0.027271734550595284
557784.0 177514.0 0.2146300971508026
557784.0 177534.0 0.4530664086341858
557784.0 177554.0 0.7184118032455444
557784.0 177574.0 1.0482110977172852
557804.0 176814.0 0.2518293857574463
557804.0 176834.0 0.15740202367305756
557804.0 176854.0 0.04724330082535744
557804.0 176894.0 0.008685873821377754
557804.0 176874.0 0.029524140059947968
557804.0 176914.0 -0.02734610065817833
557804.0 176934.0 -0.03137350082397461
557804.0 176954.0 -0.08488480001688004
557804.0 176974.0 -0.36562249064445496
557804.0 176994.0 -0.5808554291725159
557804.0 177014.0 -0.898417592048645
557804.0 177034.0 -0.8152192234992981
557804.0 177054.0 -0.5360978841781616
557804.0 177074.0 -0.5452414155006409
557804.0 177094.0 -0.5940216183662415
557804.0 177114.0 -0.6783576011657715
557804.0 177134.0 -0.7626943588256836
557804.0 177154.0 -0.8951991200447083
557804.0 177174.0 -0.8819149136543274
557804.0 177194.0 -0.8955473303794861
557804.0 177214.0 -0.9091795086860657
557804.0 177234.0 -0.8219220638275146
557804.0 177254.0 -0.7139419913291931
557804.0 177274.0 -0.6059626340866089
557804.0 177294.0 -0.6163654923439026
557804.0 177314.0 -0.5624545812606812
557804.0 177334.0 -0.5625008940696716
557804.0 177354.0 -0.5962294936180115
557804.0 177374.0 -0.6377121806144714
557804.0 177394.0 -0.5987038016319275
557804.0 177414.0 -0.6008362770080566
557804.0 177434.0 -0.47322261333465576
557804.0 177454.0 -0.3245689868927002
557804.0 177474.0 -0.1332329660654068
557804.0 177494.0 0.0842723697423935
557804.0 177514.0 0.32270899415016174
557804.0 177534.0 0.5611453056335449
557804.0 177554.0 0.8601047992706299
557804.0 177574.0 1.1899040937423706
557784.0 177594.0 1.2738958597183228
557804.0 177594.0 1.5022861957550049
557824.0 176814.0 0.13487866520881653
557824.0 176834.0 0.04011806845664978
557824.0 176854.0 -0.06663712859153748
557824.0 176894.0 -0.10107702016830444
557824.0 176874.0 -0.06592932343482971
557824.0 176914.0 -0.1402953416109085
557824.0 176934.0 -0.15366299450397491
557824.0 176954.0 -0.2250245064496994
557824.0 176974.0 -0.4449506103992462
557824.0 176994.0 -0.6862326264381409
557824.0 177014.0 -0.9875898957252502
557824.0 177034.0 -0.9730852246284485
557824.0 177054.0 -0.8540496230125427
557824.0 177074.0 -0.6572294235229492
557824.0 177094.0 -0.7129489779472351
557824.0 177114.0 -1.034784197807312
557824.0 177134.0 -1.215320110321045
557824.0 177154.0 -1.0277026891708374
557824.0 177174.0 -0.9910280704498291
557824.0 177194.0 -1.0090036392211914
557824.0 177214.0 -1.0142184495925903
557824.0 177234.0 -0.9062392711639404
557824.0 177254.0 -0.7982594966888428
557824.0 177274.0 -0.6902802586555481
557824.0 177294.0 -0.6004756689071655
557824.0 177314.0 -0.641958475112915
557824.0 177334.0 -0.6834412813186646
557824.0 177354.0 -0.7249240279197693
557824.0 177374.0 -0.7664071321487427
557824.0 177394.0 -0.7394230961799622
557824.0 177414.0 -0.6380996704101562
557824.0 177434.0 -0.49462977051734924
557824.0 177454.0 -0.35490888357162476
557824.0 177474.0 -0.16535282135009766
557824.0 177494.0 0.0993008017539978
557824.0 177514.0 0.3553276062011719
557824.0 177534.0 0.6102669835090637
557824.0 177554.0 0.9542391300201416
557824.0 177574.0 1.3048077821731567
557824.0 177594.0 1.7509516477584839
557804.0 177614.0 2.0888919830322266
557824.0 177614.0 2.3465640544891357
557844.0 176814.0 0.017928600311279297
557844.0 176834.0 -0.08540619909763336
557844.0 176854.0 -0.16210082173347473
557844.0 176894.0 -0.21083837747573853
557844.0 176874.0 -0.16138289868831635
557844.0 176914.0 -0.25271183252334595
557844.0 176934.0 -0.29380330443382263
557844.0 176954.0 -0.36516329646110535
557844.0 176974.0 -0.5242779850959778
557844.0 176994.0 -0.79161137342453
557844.0 177014.0 -1.0057406425476074
557844.0 177034.0 -0.9208819270133972
557844.0 177054.0 -0.801847517490387
557844.0 177074.0 -0.7097712159156799
557844.0 177094.0 -0.8763638138771057
557844.0 177114.0 -1.2173912525177002
557844.0 177134.0 -1.3682057857513428
557844.0 177154.0 -1.286016583442688
557844.0 177174.0 -1.2274795770645142
557844.0 177194.0 -1.1224596500396729
557844.0 177214.0 -1.0985362529754639
557844.0 177234.0 -0.990557074546814
557844.0 177254.0 -0.8848447799682617
557844.0 177274.0 -0.7742061614990234
557844.0 177294.0 -0.6371418237686157
557844.0 177314.0 -0.7248510718345642
557844.0 177334.0 -0.8121358156204224
557844.0 177354.0 -0.853619396686554
557844.0 177374.0 -0.8907989859580994
557844.0 177394.0 -0.8029782176017761
557844.0 177414.0 -0.6864372491836548
557844.0 177434.0 -0.5348379611968994
557844.0 177454.0 -0.3832389712333679
557844.0 177474.0 -0.19627870619297028
557844.0 177494.0 0.06665640324354172
557844.0 177514.0 0.3226830065250397
557844.0 177534.0 0.5792080760002136
557844.0 177554.0 0.9297767877578735
557844.0 177574.0 1.2803456783294678
557844.0 177594.0 1.7600302696228027
557844.0 177614.0 2.369154930114746
557864.0 176814.0 -0.09936696290969849
557864.0 176834.0 -0.21092896163463593
557864.0 176854.0 -0.257564514875412
557864.0 176894.0 -0.3206004798412323
557864.0 176874.0 -0.25683748722076416
557864.0 176914.0 -0.36462947726249695
557864.0 176934.0 -0.4339430034160614
557864.0 176954.0 -0.5053030848503113
557864.0 176974.0 -0.6036072969436646
557864.0 176994.0 -0.8288015127182007
557864.0 177014.0 -1.023891568183899
557864.0 177034.0 -0.8686798214912415
557864.0 177054.0 -0.7496448755264282
557864.0 177074.0 -0.7148494124412537
557864.0 177094.0 -0.8102983832359314
557864.0 177114.0 -1.1472291946411133
557864.0 177134.0 -1.41875159740448
557864.0 177154.0 -1.3595136404037476
557864.0 177174.0 -1.304753303527832
557864.0 177194.0 -1.2569175958633423
557864.0 177214.0 -1.1849689483642578
557864.0 177234.0 -1.082837462425232
557864.0 177254.0 -0.9783082008361816
557864.0 177274.0 -0.6863489747047424
557864.0 177294.0 -0.6624574661254883
557864.0 177314.0 -0.7501677870750427
557864.0 177334.0 -0.8378766775131226
557864.0 177354.0 -0.9348011016845703
557864.0 177374.0 -1.0027124881744385
557864.0 177394.0 -0.8663654327392578
557864.0 177414.0 -0.714767575263977
557864.0 177434.0 -0.563167929649353
557864.0 177454.0 -0.4115687906742096
557864.0 177474.0 -0.22720439732074738
557864.0 177494.0 0.034012001007795334
557864.0 177514.0 0.2891772985458374
557864.0 177534.0 0.5547459125518799
557864.0 177554.0 0.9053146243095398
557864.0 177574.0 1.2411713600158691
557864.0 177594.0 1.7691096067428589
557864.0 177614.0 2.264437437057495
557884.0 176814.0 -0.11967910081148148
557884.0 176834.0 -0.28490790724754333
557884.0 176854.0 -0.3464707136154175
557884.0 176894.0 -0.4105203151702881
557884.0 176874.0 -0.35498476028442383
557884.0 176914.0 -0.42033353447914124
557884.0 176934.0 -0.4585624933242798
557884.0 176954.0 -0.5229982137680054
557884.0 176974.0 -0.7630391716957092
557884.0 176994.0 -0.8469517827033997
557884.0 177014.0 -1.0420421361923218
557884.0 177034.0 -0.8164768218994141
557884.0 177054.0 -0.7219467163085938
557884.0 177074.0 -0.6999379992485046
557884.0 177094.0 -0.7462174892425537
557884.0 177114.0 -1.0526301860809326
557884.0 177134.0 -1.3272197246551514
557884.0 177154.0 -1.4330108165740967
557884.0 177174.0 -1.38202702999115
557884.0 177194.0 -1.239678144454956
557884.0 177214.0 -1.1701244115829468
557884.0 177234.0 -1.1326428651809692
557884.0 177254.0 -0.8775148391723633
557884.0 177274.0 -0.5799226760864258
557884.0 177294.0 -0.7816938161849976
557884.0 177314.0 -0.8836439251899719
557884.0 177334.0 -0.9855928421020508
557884.0 177354.0 -1.0875420570373535
557884.0 177374.0 -1.0109606981277466
557884.0 177394.0 -0.8946959376335144
557884.0 177414.0 -0.7430968880653381
557884.0 177434.0 -0.5914978384971619
557884.0 177454.0 -0.43989893794059753
557884.0 177474.0 -0.25813010334968567
557884.0 177494.0 0.0013676000526174903
557884.0 177514.0 0.24980460107326508
557884.0 177534.0 0.5302835702896118
557884.0 177554.0 0.880852460861206
557884.0 177574.0 1.1976935863494873
557884.0 177594.0 1.778188705444336
557904.0 176814.0 -0.13996370136737823
557904.0 176834.0 -0.2946360111236572
557904.0 176854.0 -0.4125725030899048
557904.0 176894.0 -0.470786452293396
557904.0 176874.0 -0.4212067127227783
557904.0 176914.0 -0.3711352050304413
557904.0 176934.0 -0.5323628187179565
557904.0 176954.0 -0.9272112250328064
557904.0 176974.0 -0.989360511302948
557904.0 176994.0 -0.9600542783737183
557904.0 177014.0 -1.0587605237960815
557904.0 177034.0 -0.7683464884757996
557904.0 177054.0 -0.8046236038208008
557904.0 177074.0 -0.6850277185440063
557904.0 177094.0 -0.717102587223053
557904.0 177114.0 -0.9580307006835938
557904.0 177134.0 -1.2356878519058228
557904.0 177154.0 -1.5071371793746948
557904.0 177174.0 -1.3581156730651855
557904.0 177194.0 -1.201453685760498
557904.0 177214.0 -1.1552801132202148
557904.0 177234.0 -1.0614686012268066
557904.0 177254.0 -0.7785798907279968
557904.0 177274.0 -0.6264212131500244
557904.0 177294.0 -0.8802875280380249
557904.0 177314.0 -1.0434297323226929
557904.0 177334.0 -1.1453790664672852
557904.0 177354.0 -1.0914901494979858
557904.0 177374.0 -0.9541324973106384
557904.0 177394.0 -0.9484496116638184
557904.0 177414.0 -0.771426796913147
557904.0 177434.0 -0.6198278069496155
557904.0 177454.0 -0.4682287871837616
557904.0 177474.0 -0.2890557050704956
557904.0 177494.0 -0.03191255033016205
557924.0 176814.0 -0.14518220722675323
557924.0 176834.0 -0.3084036111831665
557924.0 176854.0 -0.4786745011806488
557924.0 176894.0 -0.4951828420162201
557924.0 176874.0 -0.48742765188217163
557924.0 176914.0 -0.6015505194664001
557924.0 176934.0 -0.8501582741737366
557924.0 176954.0 -1.1282387971878052
557924.0 176974.0 -1.1603831052780151
557924.0 176994.0 -1.1665922403335571
557924.0 177014.0 -1.0611233711242676
557924.0 177034.0 -0.8294665813446045
557924.0 177054.0 -0.8500264883041382
557924.0 177074.0 -0.5806487798690796
557924.0 177094.0 -0.7739061117172241
557924.0 177114.0 -1.0357810258865356
557924.0 177134.0 -1.3618170022964478
557924.0 177154.0 -1.5887998342514038
557924.0 177174.0 -1.2658758163452148
557924.0 177194.0 -1.1779179573059082
557924.0 177214.0 -1.160482406616211
557924.0 177234.0 -0.9451233744621277
557924.0 177254.0 -0.6771140098571777
557924.0 177274.0 -0.6980079412460327
557924.0 177294.0 -0.9382321834564209
557924.0 177314.0 -1.1806528568267822
557924.0 177334.0 -1.202071189880371
557924.0 177354.0 -1.0345453023910522
557924.0 177374.0 -0.8973049521446228
557924.0 177394.0 -0.8916223645210266
557924.0 177414.0 -0.86849445104599
557924.0 177434.0 -0.6591198444366455
557924.0 177454.0 -0.49655869603157043
557924.0 177474.0 -0.31998151540756226
557944.0 176814.0 -0.14251789450645447
557944.0 176834.0 -0.3221718966960907
557944.0 176854.0 -0.5018255114555359
557944.0 176894.0 -0.583357572555542
557944.0 176874.0 -0.5551164746284485
557944.0 176914.0 -0.8319656252861023
557944.0 176934.0 -1.0805726051330566
557944.0 176954.0 -1.3292659521102905
557944.0 176974.0 -1.288199543952942
557944.0 176994.0 -1.2498445510864258
557944.0 177014.0 -1.0736229419708252
557944.0 177034.0 -0.966335117816925
557944.0 177054.0 -0.7614821791648865
557944.0 177074.0 -0.7428811192512512
557944.0 177094.0 -0.9240623712539673
557944.0 177114.0 -1.11203134059906
557944.0 177134.0 -1.492537260055542
557944.0 177154.0 -1.5875060558319092
557944.0 177174.0 -1.3095529079437256
557944.0 177194.0 -1.245827317237854
557944.0 177214.0 -1.058720588684082
557944.0 177234.0 -0.8537454009056091
557944.0 177254.0 -0.7009877562522888
557944.0 177274.0 -0.61127769947052
557944.0 177294.0 -0.8506246209144592
557944.0 177314.0 -1.040825366973877
557944.0 177334.0 -1.0956246852874756
557944.0 177354.0 -0.9776009917259216
557944.0 177374.0 -0.8404772281646729
557944.0 177394.0 -0.8347941040992737
557944.0 177414.0 -0.8291115760803223
557944.0 177434.0 -0.7588160037994385
557944.0 177454.0 -0.5494415760040283
557944.0 177474.0 -0.3530021905899048
557964.0 176814.0 -0.15628600120544434
557964.0 176834.0 -0.33594009280204773
557984.0 176814.0 -0.18840749561786652
557964.0 176854.0 -0.5155935287475586
557984.0 176834.0 -0.3657926023006439
557964.0 176874.0 -0.6245583295822144
557984.0 176854.0 -0.543177604675293
557964.0 176894.0 -0.8137733936309814
557984.0 176894.0 -0.7799845933914185
557984.0 176874.0 -0.6510661840438843
557964.0 176914.0 -1.0363692045211792
557964.0 176934.0 -1.1652874946594238
557984.0 176914.0 -0.9089016914367676
557964.0 176954.0 -1.3167152404785156
557984.0 176934.0 -1.0378203392028809
557964.0 176974.0 -1.4284826517105103
557984.0 176954.0 -1.2464983463287354
557964.0 176994.0 -1.5445314645767212
557984.0 176974.0 -1.576871395111084
557964.0 177014.0 -1.1759374141693115
557984.0 176994.0 -1.5253897905349731
557964.0 177034.0 -0.97883540391922
557984.0 177014.0 -1.3394073247909546
557964.0 177054.0 -0.8715469241142273
557984.0 177034.0 -1.1534233093261719
557964.0 177074.0 -0.8000000715255737
557984.0 177054.0 -0.9674406051635742
557964.0 177094.0 -0.9120311737060547
557984.0 177074.0 -0.7381247878074646
557964.0 177114.0 -1.1120308637619019
557984.0 177094.0 -0.8120315074920654
557964.0 177134.0 -1.4725333452224731
557984.0 177114.0 -0.9501559734344482
557964.0 177154.0 -1.492664098739624
557984.0 177134.0 -1.4564889669418335
557964.0 177174.0 -1.295357346534729
557984.0 177154.0 -1.4127987623214722
557964.0 177194.0 -1.1542197465896606
557984.0 177174.0 -1.3401354551315308
557964.0 177214.0 -1.0815565586090088
557984.0 177194.0 -1.2674731016159058
557964.0 177234.0 -0.9123347997665405
557984.0 177214.0 -1.1929805278778076
557964.0 177254.0 -0.8394815921783447
557984.0 177234.0 -0.9549344182014465
557964.0 177274.0 -0.45241400599479675
557984.0 177254.0 -0.8112426996231079
557964.0 177294.0 -0.6598551273345947
557984.0 177274.0 -0.3228367865085602
557964.0 177314.0 -0.8446760177612305
557984.0 177294.0 -0.328970730304718
557964.0 177334.0 -0.8778806924819946
557984.0 177314.0 -0.6562479138374329
557964.0 177354.0 -0.8098980784416199
557984.0 177334.0 -0.6601375937461853
557964.0 177374.0 -0.7619275450706482
557984.0 177354.0 -0.633062481880188
557964.0 177394.0 -0.745538592338562
557984.0 177374.0 -0.6233348846435547
557964.0 177414.0 -0.7291496396064758
557984.0 177394.0 -0.5816488862037659
557964.0 177434.0 -0.6590313911437988
557984.0 177414.0 -0.5652599930763245
557964.0 177454.0 -0.4099901020526886
557984.0 177434.0 -0.36205941438674927
557984.0 177454.0 -0.11301799863576889
558004.0 176814.0 -0.24057920277118683
558004.0 176834.0 -0.4179643988609314
558004.0 176854.0 -0.5953488945960999
558004.0 176874.0 -0.5534436702728271
558004.0 176894.0 -0.6525167226791382
558004.0 176914.0 -0.7814351916313171
558004.0 176934.0 -0.9103519916534424
558004.0 176954.0 -1.176281213760376
558004.0 176974.0 -1.577346682548523
558004.0 176994.0 -1.7084271907806396
558004.0 177014.0 -1.6222976446151733
558004.0 177034.0 -1.4363144636154175
558004.0 177054.0 -1.2503310441970825
558004.0 177074.0 -0.7618743777275085
558004.0 177094.0 -0.8739063739776611
558004.0 177114.0 -1.0618747472763062
558004.0 177134.0 -1.1830763816833496
558004.0 177154.0 -1.5260517597198486
558004.0 177174.0 -1.453389286994934
558004.0 177194.0 -1.3807262182235718
558004.0 177214.0 -1.2700916528701782
558004.0 177234.0 -0.9975348711013794
558004.0 177254.0 -0.7401421070098877
558004.0 177274.0 -0.4428601562976837
558004.0 177294.0 -0.4631952941417694
558004.0 177314.0 -0.5299872159957886
558004.0 177334.0 -0.5000584721565247
558004.0 177354.0 -0.5700278282165527
558004.0 177374.0 -0.5174307823181152
558004.0 177394.0 -0.4177590012550354
558004.0 177414.0 -0.3183363080024719
558004.0 177434.0 -0.06508699804544449
558004.0 177454.0 0.18366460502147675
558024.0 176814.0 -0.19427180290222168
558024.0 176834.0 -0.47013530135154724
558024.0 176854.0 -0.5919198989868164
558024.0 176874.0 -0.4819101095199585
558024.0 176894.0 -0.472097247838974
558024.0 176914.0 -0.6539672017097473
558024.0 176934.0 -0.7828853130340576
558024.0 176954.0 -1.1060634851455688
558024.0 176974.0 -1.5223115682601929
558024.0 176994.0 -1.7783870697021484
558024.0 177014.0 -1.8399837017059326
558024.0 177034.0 -1.7192046642303467
558024.0 177054.0 -1.283557415008545
558024.0 177074.0 -0.812031626701355
558024.0 177094.0 -0.924062192440033
558024.0 177114.0 -1.0260932445526123
558024.0 177134.0 -0.9205901026725769
558024.0 177154.0 -1.3714512586593628
558024.0 177174.0 -1.566641926765442
558024.0 177194.0 -1.493979811668396
558024.0 177214.0 -1.312691330909729
558024.0 177234.0 -1.0401346683502197
558024.0 177254.0 -0.7675786018371582
558024.0 177274.0 -0.6311897039413452
558024.0 177294.0 -0.5730865001678467
558024.0 177314.0 -0.5350562930107117
558024.0 177334.0 -0.5009135007858276
558024.0 177354.0 -0.5841140151023865
558024.0 177374.0 -0.41152647137641907
558024.0 177394.0 -0.2538689970970154
558024.0 177414.0 -0.02067374996840954
558024.0 177434.0 0.2318848967552185
558024.0 177454.0 0.48032504320144653
558044.0 176814.0 -0.15495799481868744
558044.0 176834.0 -0.48928558826446533
558044.0 176854.0 -0.5285195708274841
558044.0 176874.0 -0.4185102880001068
558044.0 176894.0 -0.37282848358154297
558044.0 176914.0 -0.4950386881828308
558044.0 176934.0 -0.6554179787635803
558044.0 176954.0 -1.0358468294143677
558044.0 176974.0 -1.4672777652740479
558044.0 176994.0 -1.8135923147201538
558044.0 177014.0 -1.90994393825531
558044.0 177034.0 -1.841887354850769
558044.0 177054.0 -1.644962191581726
558044.0 177074.0 -0.7999997138977051
558044.0 177094.0 -0.838124692440033
558044.0 177114.0 -0.8381254076957703
558044.0 177134.0 -0.8000000715255737
558044.0 177154.0 -1.4255237579345703
558044.0 177174.0 -1.5598256587982178
558044.0 177194.0 -1.6072328090667725
558044.0 177214.0 -1.3552905321121216
558044.0 177234.0 -1.0260370969772339
558044.0 177254.0 -0.6760064959526062
558044.0 177274.0 -0.7045584917068481
558044.0 177294.0 -0.6665285229682922
558044.0 177314.0 -0.6284980773925781
558044.0 177334.0 -0.6577333807945251
558044.0 177354.0 -0.6156942844390869
558044.0 177374.0 -0.34233829379081726
558044.0 177394.0 -0.03510931879281998
558044.0 177414.0 0.27698880434036255
558044.0 177434.0 0.5286160111427307
558044.0 177454.0 0.7590646147727966
558064.0 176814.0 -0.1446910947561264
558064.0 176834.0 -0.375509113073349
558064.0 176854.0 -0.3502325117588043
558064.0 176874.0 -0.35510966181755066
558064.0 176894.0 -0.3011043667793274
558064.0 176914.0 -0.29160600900650024
558064.0 176934.0 -0.5179794430732727
558064.0 176954.0 -0.9656295776367188
558064.0 176974.0 -1.3293694257736206
558064.0 176994.0 -1.458175539970398
558064.0 177014.0 -1.5274908542633057
558064.0 177034.0 -1.2531046867370605
558064.0 177054.0 -1.0056742429733276
558064.0 177074.0 -0.7381253838539124
558064.0 177094.0 -0.7381253838539124
558064.0 177114.0 -0.7999997735023499
558064.0 177134.0 -0.7879685163497925
558064.0 177154.0 -1.4462095499038696
558064.0 177174.0 -1.499880075454712
558064.0 177194.0 -1.662554383277893
558064.0 177214.0 -1.266292929649353
558064.0 177234.0 -0.8457531929016113
558064.0 177254.0 -0.7200395464897156
558064.0 177274.0 -0.797999918460846
558064.0 177294.0 -0.7599694728851318
558064.0 177314.0 -0.7313525080680847
558064.0 177334.0 -0.7553938031196594
558064.0 177354.0 -0.5592036247253418
558064.0 177374.0 -0.2815173268318176
558064.0 177394.0 0.05847182869911194
558064.0 177414.0 0.40889689326286316
558064.0 177434.0 0.7327985763549805
558064.0 177454.0 1.1287673711776733
558084.0 176814.0 -0.04456289857625961
558084.0 176834.0 -0.0970401018857956
558084.0 176854.0 -0.15235260128974915
558084.0 176874.0 -0.13835683465003967
558084.0 176894.0 -0.12886306643486023
558084.0 176914.0 -0.12833160161972046
558084.0 176934.0 -0.33955079317092896
558084.0 176954.0 -0.6869753003120422
558084.0 176974.0 -0.8652564287185669
558084.0 176994.0 -0.799080491065979
558084.0 177014.0 -0.9174867868423462
558084.0 177034.0 -0.9594929814338684
558084.0 177054.0 -0.6828175783157349
558084.0 177074.0 -0.5501561760902405
558084.0 177094.0 -0.7120311856269836
558084.0 177114.0 -0.8000003099441528
558084.0 177134.0 -0.7879686951637268
558084.0 177154.0 -1.1821316480636597
558084.0 177174.0 -1.2457860708236694
558084.0 177194.0 -1.3180936574935913
558084.0 177214.0 -1.3603707551956177
558084.0 177234.0 -0.6403976082801819
558084.0 177254.0 -0.778174877166748
558084.0 177274.0 -0.8914418816566467
558084.0 177294.0 -0.8534110188484192
558084.0 177314.0 -0.8768132925033569
558084.0 177334.0 -0.7575830221176147
558084.0 177354.0 -0.5027133822441101
558084.0 177374.0 -0.1983722597360611
558084.0 177394.0 0.1520528346300125
558084.0 177414.0 0.38478830456733704
558084.0 177434.0 0.7270262837409973
558084.0 177454.0 1.175432801246643
558104.0 176814.0 0.037098899483680725
558104.0 176834.0 -0.04568279907107353
558104.0 176854.0 0.06304609775543213
558104.0 176874.0 0.1717745065689087
558104.0 176894.0 0.22005769610404968
558104.0 176914.0 0.19864048063755035
558104.0 176934.0 -0.03214139863848686
558104.0 176954.0 -0.21042250096797943
558104.0 176974.0 -0.3887036144733429
558104.0 176994.0 -0.5669847130775452
558104.0 177014.0 -0.5459576845169067
558104.0 177034.0 -0.38911768794059753
558104.0 177054.0 -0.39678260684013367
558104.0 177074.0 -0.45015621185302734
558104.0 177094.0 -0.6120316982269287
558104.0 177114.0 -0.7862499952316284
558104.0 177134.0 -0.8454992175102234
558104.0 177154.0 -0.9042384028434753
558104.0 177174.0 -0.9366273880004883
558104.0 177194.0 -0.9690176248550415
558104.0 177214.0 -1.0014070272445679
558104.0 177234.0 -0.6599079966545105
558104.0 177254.0 -0.8372694253921509
558104.0 177274.0 -0.9848837852478027
558104.0 177294.0 -0.9617912173271179
558104.0 177314.0 -0.8790032863616943
558104.0 177334.0 -0.7195789217948914
558104.0 177354.0 -0.43395495414733887
558104.0 177374.0 -0.10479114204645157
558104.0 177394.0 0.10777798295021057
558104.0 177414.0 0.41173237562179565
558104.0 177434.0 0.6857116222381592
558104.0 177454.0 1.073311686515808
558124.0 176814.0 -0.023729300126433372
558124.0 176834.0 -0.07161089777946472
558124.0 176854.0 -0.036420948803424835
558124.0 176874.0 0.0723079964518547
558124.0 176894.0 0.18103565275669098
558124.0 176914.0 0.2533567249774933
558124.0 176934.0 0.29277798533439636
558124.0 176954.0 0.26612991094589233
558124.0 176974.0 0.08784879744052887
558124.0 176994.0 -0.09043259918689728
558124.0 177014.0 -0.2687141001224518
558124.0 177034.0 -0.2603437900543213
558124.0 177054.0 -0.09787970036268234
558124.0 177074.0 -0.16218699514865875
558124.0 177094.0 -0.4381254017353058
558124.0 177114.0 -0.4762496054172516
558124.0 177134.0 -0.5436059236526489
558124.0 177154.0 -0.5697417259216309
558124.0 177174.0 -0.5958775877952576
558124.0 177194.0 -0.6220139861106873
558124.0 177214.0 -0.6481492519378662
558124.0 177234.0 -0.7272433638572693
558124.0 177254.0 -0.8872113823890686
558124.0 177274.0 -1.0460395812988281
558124.0 177294.0 -1.000422716140747
558124.0 177314.0 -0.881193220615387
558124.0 177334.0 -0.6583325266838074
558124.0 177354.0 -0.36163514852523804
558124.0 177374.0 -0.06855373829603195
558124.0 177394.0 0.06372213363647461
558124.0 177414.0 0.2738003134727478
558124.0 177434.0 0.6470999121665955
558144.0 176814.0 -0.02456049993634224
558144.0 176834.0 -0.07244139909744263
558144.0 176854.0 -0.12032292783260345
558144.0 176874.0 -0.02715924009680748
558144.0 176894.0 0.08156940340995789
558144.0 176914.0 0.12723375856876373
558144.0 176934.0 0.16665354371070862
558144.0 176954.0 0.20000000298023224
558144.0 176974.0 0.1379999965429306
558144.0 176994.0 0.10000000149011612
558144.0 177014.0 0.1120000034570694
558144.0 177034.0 0.029558299109339714
558144.0 177054.0 0.008170600049197674
558144.0 177074.0 -0.01203139964491129
558144.0 177094.0 -0.1501559019088745
558144.0 177114.0 -0.23812569677829742
558144.0 177134.0 -0.25297290086746216
558144.0 177154.0 -0.2997998893260956
558144.0 177174.0 -0.37167519330978394
558144.0 177194.0 -0.4688727855682373
558144.0 177214.0 -0.579929769039154
558144.0 177234.0 -0.723278284072876
558144.0 177254.0 -0.888565719127655
558144.0 177274.0 -1.0055811405181885
558144.0 177294.0 -0.985825777053833
558144.0 177314.0 -0.8799530267715454
558144.0 177334.0 -0.5863913297653198
558144.0 177354.0 -0.26805445551872253
558144.0 177374.0 -0.19797469675540924
558144.0 177394.0 0.022512299939990044
558144.0 177414.0 0.19140571355819702
558144.0 177434.0 0.5345813035964966
558164.0 176814.0 -0.025390099734067917
558164.0 176834.0 -0.07327140122652054
558164.0 176854.0 -0.12115229666233063
558164.0 176874.0 -0.12662619352340698
558164.0 176894.0 -0.03831113874912262
558164.0 176914.0 0.0011094999499619007
558164.0 176934.0 0.04052973911166191
558164.0 176954.0 0.07995066046714783
558164.0 176974.0 0.10000000149011612
558164.0 176994.0 0.09999959915876389
558164.0 177014.0 0.1120000034570694
558164.0 177034.0 0.23763349652290344
558164.0 177054.0 0.2184332013130188
558164.0 177074.0 0.0879686027765274
558164.0 177094.0 -0.01203139964491129
558164.0 177114.0 -0.03812490031123161
558164.0 177134.0 -0.14921879768371582
558164.0 177154.0 -0.22956949472427368
558164.0 177174.0 -0.3406260013580322
558164.0 177194.0 -0.4516831934452057
558164.0 177214.0 -0.5627400875091553
558164.0 177234.0 -0.7178871035575867
558164.0 177254.0 -0.8831747770309448
558164.0 177274.0 -0.8804935812950134
558164.0 177294.0 -0.8607378005981445
558164.0 177314.0 -0.7962568998336792
558164.0 177334.0 -0.5144495964050293
558164.0 177354.0 -0.3743060827255249
558164.0 177374.0 -0.25734376907348633
558164.0 177394.0 -0.17942571640014648
558164.0 177414.0 0.11794407665729523
558164.0 177434.0 0.4017702341079712
558184.0 176814.0 0.015257470309734344
558184.0 176834.0 -0.0444011315703392
558184.0 176854.0 -0.10405970364809036
558184.0 176874.0 -0.1637182980775833
558184.0 176894.0 -0.16304610669612885
558184.0 176914.0 -0.12242130190134048
558184.0 176934.0 -0.0817960873246193
558184.0 176954.0 -0.041171398013830185
558184.0 176974.0 -5.471023032441735E-4
558184.0 176994.0 0.04007809981703758
558184.0 177014.0 0.08070310205221176
558184.0 177034.0 0.12132800370454788
558184.0 177054.0 0.16195310652256012
558184.0 177074.0 -0.3071623146533966
558184.0 177094.0 -0.025561999529600143
558184.0 177114.0 -0.07878299802541733
558184.0 177134.0 -0.1085461974143982
558184.0 177154.0 -0.21238009631633759
558184.0 177174.0 -0.32343629002571106
558184.0 177194.0 -0.434494286775589
558184.0 177214.0 -0.5472072958946228
558184.0 177234.0 -0.7124959230422974
558184.0 177254.0 -0.7751628756523132
558184.0 177274.0 -0.7554070949554443
558184.0 177294.0 -0.6837884783744812
558184.0 177314.0 -0.6070358157157898
558184.0 177334.0 -0.5406157970428467
558184.0 177354.0 -0.5037268996238708
558184.0 177374.0 -0.43071359395980835
558184.0 177394.0 -0.30744463205337524
558184.0 177414.0 -0.014867099933326244
558184.0 177434.0 0.2808677554130554
558204.0 176814.0 -0.007991500198841095
558204.0 176834.0 0.013135699555277824
558204.0 176854.0 -0.046523261815309525
558204.0 176874.0 -0.10253609716892242
558204.0 176894.0 -0.10501182824373245
558204.0 176914.0 -0.10748810321092606
558204.0 176934.0 -0.13721756637096405
558204.0 176954.0 -0.1516583114862442
558204.0 176974.0 -0.11103382706642151
558204.0 176994.0 -0.07040899991989136
558204.0 177014.0 -0.029784299433231354
558204.0 177034.0 0.010840299539268017
558204.0 177054.0 0.04601290076971054
558204.0 177074.0 -0.07951760292053223
558204.0 177094.0 -0.1059056967496872
558204.0 177114.0 -0.13566899299621582
558204.0 177134.0 -0.1654312014579773
558204.0 177154.0 -0.19519349932670593
558204.0 177174.0 -0.30624809861183167
558204.0 177194.0 -0.4173052906990051
558204.0 177214.0 -0.5418157577514648
558204.0 177234.0 -0.6698311567306519
558204.0 177254.0 -0.6480722427368164
558204.0 177274.0 -0.5713198781013489
558204.0 177294.0 -0.4959149956703186
558204.0 177314.0 -0.43124109506607056
558204.0 177334.0 -0.392479807138443
558204.0 177354.0 -0.45729556679725647
558204.0 177374.0 -0.6310328245162964
558204.0 177394.0 -0.4315042495727539
558204.0 177414.0 -0.14992356300354004
558204.0 177434.0 0.12480202317237854
558224.0 176814.0 -0.06091750040650368
558224.0 176834.0 0.005696100182831287
558224.0 176854.0 0.011013300158083439
558224.0 176874.0 -0.023006990551948547
558224.0 176894.0 -0.025482699275016785
558224.0 176914.0 -0.02795884944498539
558224.0 176934.0 -0.03043496049940586
558224.0 176954.0 -0.040149200707674026
558224.0 176974.0 -0.07213912904262543
558224.0 176994.0 -0.10397759079933167
558224.0 177014.0 -0.1355849951505661
558224.0 177034.0 -0.0996469035744667
558224.0 177054.0 -0.1676574945449829
558224.0 177074.0 -0.13302910327911377
558224.0 177094.0 -0.16279080510139465
558224.0 177114.0 -0.19255340099334717
558224.0 177134.0 -0.2223162055015564
558224.0 177154.0 -0.2520788908004761
558224.0 177174.0 -0.2890586853027344
558224.0 177194.0 -0.40011540055274963
558224.0 177214.0 -0.5364245772361755
558224.0 177234.0 -0.5356029272079468
558224.0 177254.0 -0.4591620862483978
558224.0 177274.0 -0.394488662481308
558224.0 177294.0 -0.32981520891189575
558224.0 177314.0 -0.2651416063308716
558224.0 177334.0 -0.24434350430965424
558224.0 177354.0 -0.373794287443161
558224.0 177374.0 -0.46833422780036926
558224.0 177394.0 -0.47967422008514404
558224.0 177414.0 -0.2987005114555359
558224.0 177434.0 -0.03810114040970802
558244.0 176814.0 -0.11384379863739014
558244.0 176834.0 -0.047230299562215805
558244.0 176854.0 0.05389929935336113
558244.0 176874.0 0.0685153678059578
558304.0 176314.0 1.1992201805114746
558244.0 176914.0 0.0515700988471508
558244.0 176934.0 0.04909496009349823
558244.0 176954.0 0.0466187484562397
558244.0 176974.0 0.04414214938879013
558244.0 176994.0 0.024929599836468697
558244.0 177014.0 -0.007062099874019623
558244.0 177034.0 -0.039052799344062805
558244.0 177054.0 -0.07878430187702179
558244.0 177074.0 -0.13032430410385132
558244.0 177094.0 -0.1822374016046524
558244.0 177114.0 -0.23421579599380493
558244.0 177134.0 -0.2792012095451355
558244.0 177154.0 -0.308963805437088
558244.0 177174.0 -0.33872631192207336
