428091.125000 6738319.000000 -3099.791016 
428281.968750 6734877.000000 -3063.271973 
430912.968750 6735134.500000 -2834.903076 
430366.156250 6744898.500000 -2880.818115 
426551.000000 6745415.500000 -3038.832031 
430724.156250 6743178.000000 -2853.993896 
427129.812500 6747091.500000 -2935.742920 
430581.281250 6734516.500000 -2872.830078 
429407.968750 6748419.500000 -2745.850098 
426042.593750 6734511.000000 -3274.269043 
426143.312500 6742048.500000 -3227.302979 
428276.500000 6737315.000000 -3094.599121 
428108.812500 6737368.500000 -3102.548096 
426720.312500 6735534.500000 -3268.280029 
429766.531250 6746724.000000 -2717.116943 
429767.062500 6741347.500000 -2845.154053 
431689.875000 6735518.500000 -2779.459961 
427270.375000 6748439.000000 -2887.496094 
427888.000000 6742074.500000 -3052.360107 
431413.625000 6737562.500000 -2745.083008 
425795.187500 6739742.500000 -3243.877930 
430727.031250 6742415.500000 -2861.793945 
428058.312500 6736744.500000 -3111.321045 
428237.968750 6734565.000000 -3079.944092 
431298.843750 6734751.500000 -2799.066895 
430904.343750 6742824.500000 -2836.059082 
426904.625000 6735380.500000 -3256.593994 
427528.187500 6742807.000000 -3071.537109 
429227.062500 6744234.500000 -2835.822021 
430904.593750 6744637.500000 -2912.821045 
431671.875000 6743658.500000 -2796.560059 
426342.218750 6744394.500000 -3062.964111 
431893.468750 6740790.500000 -2791.199951 
431678.375000 6744871.000000 -2811.620117 
431476.875000 6742400.000000 -2807.965088 
429956.875000 6744157.000000 -2962.176025 
430295.343750 6742399.500000 -2907.851074 
430388.281250 6745060.500000 -2869.300049 
431709.656250 6741870.000000 -2797.300049 
428061.437500 6738695.000000 -3106.237061 
426559.656250 6736826.000000 -3227.660889 
428248.375000 6741367.000000 -3017.718018 
428247.812500 6744942.500000 -2896.988037 
427860.906250 6747076.500000 -2856.041016 
427697.968750 6737452.000000 -3126.574951 
428512.625000 6745049.500000 -2895.797119 
426172.218750 6740735.000000 -3227.774902 
428269.218750 6736065.000000 -3099.886963 
428297.281250 6748217.500000 -2798.318115 
428239.531250 6736440.500000 -3104.512939 
430013.125000 6740555.000000 -2825.566895 
428436.625000 6740500.000000 -3038.958008 
430341.937500 6742836.000000 -2915.860107 
427164.156250 6747841.000000 -2924.729004 
429396.843750 6737979.500000 -2980.361084 
430255.000000 6738662.000000 -2886.206055 
429951.937500 6741219.000000 -2821.113037 
429986.031250 6740155.500000 -2860.611084 
429059.375000 6744288.000000 -2850.742920 
429760.312500 6739222.000000 -2933.988037 
428361.312500 6747691.000000 -2771.092041 
427868.968750 6745663.500000 -2869.968994 
430737.750000 6734825.500000 -2840.049072 
431858.312500 6741804.000000 -2783.097900 
428460.562500 6740749.500000 -2997.672119 
427528.187500 6738306.000000 -3156.912109 
427094.656250 6745404.500000 -2971.559082 
428301.156250 6748405.000000 -2822.474121 
431498.500000 6739836.000000 -2861.385010 
432048.906250 6739249.500000 -2825.846924 
426712.406250 6748663.000000 -2963.895996 
428075.500000 6737569.500000 -3108.020020 
431677.625000 6739432.500000 -2855.049072 
430423.468750 6737745.500000 -2880.343018 
431091.812500 6742820.500000 -2812.717041 
430166.750000 6734425.000000 -2908.728027 
427337.375000 6738147.500000 -3170.592041 
427095.218750 6735527.000000 -3240.913086 
430186.000000 6741651.500000 -2815.209961 
429626.218750 6739987.500000 -2902.802979 
431670.593750 6739995.000000 -2840.564941 
425962.625000 6739676.500000 -3244.594971 
428813.062500 6746869.000000 -2709.277100 
426529.906250 6747104.000000 -3037.309082 
426151.875000 6747862.000000 -3064.778076 
431513.343750 6740548.500000 -2843.372070 
429113.031250 6742361.500000 -2891.586914 
426157.125000 6739109.500000 -3267.162109 
426523.156250 6744078.500000 -3033.626953 
426170.406250 6737046.500000 -3248.385986 
432059.812500 6745176.000000 -2789.708008 
430914.468750 6746012.500000 -2841.615967 
425965.500000 6735312.500000 -3309.946045 
430713.781250 6739077.500000 -2809.388916 
429398.875000 6747982.000000 -2771.604980 
426524.750000 6737851.500000 -3243.766113 
432281.156250 6737794.500000 -2832.916016 
430918.906250 6745324.500000 -2910.844971 
431705.218750 6742557.500000 -2788.355957 
430725.218750 6737827.000000 -2816.147949 
428458.187500 6746939.000000 -2765.784912 
427159.812500 6735025.500000 -3181.434082 
426168.843750 6736071.000000 -3283.319092 
427321.187500 6742774.000000 -3087.898926 
427293.562500 6748651.000000 -2885.285889 
426629.656250 6744689.000000 -3028.618896 
427288.406250 6734897.500000 -3165.354004 
426909.031250 6744595.500000 -2992.608887 
426329.250000 6735668.000000 -3301.512939 
428465.500000 6743688.000000 -2956.825928 
429427.031250 6739429.000000 -2922.003906 
428814.406250 6737029.000000 -3054.363037 
429776.937500 6742723.000000 -2811.077881 
426718.187500 6739936.000000 -3186.153076 
426000.906250 6737012.500000 -3253.152100 
429963.875000 6743594.000000 -2948.804932 
428893.000000 6745304.500000 -2840.118896 
430169.312500 6747153.500000 -2674.163086 
430357.343750 6734571.000000 -2893.322998 
426923.375000 6740781.500000 -3173.947021 
430944.937500 6742073.500000 -2841.753906 
429394.718750 6745981.500000 -2754.767090 
429801.187500 6739384.000000 -2932.561035 
428663.375000 6744184.000000 -2898.389893 
429430.937500 6739616.500000 -2919.423096 
430518.468750 6743207.500000 -2892.235107 
426361.187500 6747107.500000 -3059.315918 
427281.843750 6748088.500000 -2893.007080 
426252.156250 6734669.000000 -3263.242920 
430399.468750 6745598.000000 -2805.262939 
430182.375000 6735175.000000 -2893.929932 
431710.968750 6736531.000000 -2718.666016 
431855.968750 6743492.000000 -2776.898926 
431292.031250 6741628.500000 -2850.020996 
430531.218750 6746520.500000 -2730.429932 
431030.343750 6744372.000000 -2895.031006 
430552.343750 6739431.000000 -2817.373047 
426609.625000 6739225.500000 -3232.699951 
429770.406250 6746911.500000 -2722.701904 
428854.531250 6734452.500000 -3008.874023 
429432.781250 6736103.000000 -2944.867920 
431174.843750 6745007.000000 -2875.816895 
425985.531250 6740776.000000 -3238.642090 
429022.406250 6742513.500000 -2902.529053 
430194.312500 6745652.500000 -2828.842041 
426004.562500 6737187.500000 -3262.420898 
425773.875000 6735116.500000 -3267.166992 
426342.187500 6748896.000000 -2995.361084 
431521.375000 6745437.000000 -2826.074951 
430557.562500 6736080.000000 -2850.999023 
430685.906250 6741341.000000 -2879.059082 
427542.281250 6734479.500000 -3137.408936 
427108.187500 6745154.000000 -2969.860107 
429635.593750 6740437.500000 -2907.076904 
429402.781250 6748169.500000 -2758.612061 
426770.281250 6737934.000000 -3224.756104 
426917.375000 6744095.000000 -2996.372070 
428876.093750 6739991.000000 -2976.343018 
431490.656250 6743062.000000 -2796.128906 
428053.843750 6744634.000000 -2951.950928 
429618.375000 6745914.500000 -2866.111084 
432256.125000 6744696.500000 -2772.658936 
428689.406250 6744533.500000 -2887.509033 
428242.875000 6745605.500000 -2820.603027 
425925.125000 6737876.500000 -3278.383057 
426939.000000 6737030.500000 -3193.870117 
427887.781250 6737561.000000 -3124.510010 
429989.656250 6747532.000000 -2686.863037 
426345.593750 6744557.000000 -3057.379883 
426078.187500 6745225.500000 -3082.288086 
432236.906250 6739270.500000 -2793.332031 
430575.781250 6736954.500000 -2850.002930 
428865.718750 6734990.000000 -2996.730957 
426947.562500 6742844.000000 -3127.085938 
429195.281250 6743610.000000 -2865.324951 
425777.781250 6735304.000000 -3308.930908 
431041.531250 6744009.500000 -2862.594971 
429085.125000 6746425.500000 -2706.604004 
427211.312500 6742901.000000 -3095.812988 
430071.406250 6743354.500000 -2947.327881 
427141.531250 6742252.500000 -3140.139893 
427527.625000 6747283.500000 -2887.614014 
426157.343750 6745424.000000 -3078.000977 
431666.687500 6738907.500000 -2869.208984 
427284.531250 6734710.000000 -3164.158936 
427133.218750 6739152.000000 -3183.122070 
429959.218750 6737968.000000 -2939.893066 
430156.343750 6737526.000000 -2912.821045 
431581.031250 6743798.000000 -2807.903076 
429390.562500 6743981.000000 -2832.959961 
426961.093750 6747095.000000 -2964.298096 
431870.062500 6737865.500000 -2894.233887 
427906.968750 6748388.000000 -2846.324951 
427715.625000 6747304.500000 -2862.621094 
426381.281250 6742668.500000 -3183.770996 
426538.562500 6739414.500000 -3234.639893 
429623.906250 6735374.000000 -2900.132080 
427481.875000 6736081.500000 -3186.437988 
428085.906250 6738069.500000 -3098.948975 
428623.781250 6747685.500000 -2759.323975 
425920.968750 6737677.000000 -3261.669922 
426752.593750 6735284.000000 -3272.083984 
428434.281250 6737687.000000 -3070.009033 
427283.218750 6735548.000000 -3222.173096 
426566.625000 6746165.500000 -3044.819092 
426320.875000 6743370.000000 -3125.877930 
427137.156250 6734838.000000 -3189.324951 
429392.375000 6743168.500000 -2851.020996 
430756.187500 6742014.500000 -2863.083984 
430749.468750 6735388.000000 -2847.583984 
427474.062500 6735706.500000 -3195.431885 
428618.875000 6736645.500000 -3060.844971 
430001.625000 6744506.000000 -2941.271973 
427301.375000 6744525.000000 -2956.748047 
429008.093750 6740926.000000 -2943.191895 
431861.718750 6738366.000000 -2885.757080 
428049.687500 6742633.500000 -3029.459961 
432257.718750 6740270.500000 -2774.510986 
432513.437500 6734538.500000 -2794.618896 
428059.343750 6741295.500000 -3039.798096 
431308.937500 6742441.000000 -2820.812988 
427865.125000 6735573.000000 -3142.843018 
431873.937500 6742554.000000 -2774.108887 
429825.656250 6740558.500000 -2852.208008 
425962.125000 6736050.500000 -3291.538086 
428482.468750 6735498.000000 -3076.625977 
430528.906250 6739206.000000 -2823.267090 
430339.843750 6746337.000000 -2760.435059 
427571.156250 6740368.000000 -3094.427002 
430653.875000 6737103.000000 -2838.093018 
431313.875000 6745379.000000 -2856.957031 
429379.625000 6746157.000000 -2760.414062 
429408.500000 6747544.000000 -2767.815918 
428078.812500 6747634.500000 -2826.704102 
428843.062500 6734802.500000 -3000.063965 
429020.812500 6748740.000000 -2786.229980 
431119.375000 6745945.500000 -2841.537109 
425997.250000 6736837.500000 -3253.700928 
428242.906250 6737503.500000 -3091.320068 
430716.875000 6738327.000000 -2840.988037 
426146.687500 6743111.000000 -3173.492920 
426573.937500 6742014.500000 -3196.697998 
426155.781250 6748049.500000 -3058.270996 
426715.593750 6738910.500000 -3226.833008 
431664.343750 6742396.000000 -2794.822021 
428242.906250 6736603.000000 -3098.408936 
427129.843750 6737189.000000 -3173.444092 
427371.937500 6744311.000000 -3014.616943 
430540.593750 6743369.500000 -2888.185059 
429802.187500 6748436.000000 -2696.873047 
432323.593750 6738931.500000 -2790.843018 
431666.656250 6744309.000000 -2798.025879 
429383.531250 6746344.500000 -2760.808105 
429104.687500 6742862.000000 -2883.448975 
427291.750000 6744962.500000 -2956.000000 
430916.625000 6734409.500000 -2846.329102 
427475.875000 6734893.500000 -3136.742920 
426983.281250 6734654.000000 -3208.177002 
431127.000000 6735505.500000 -2795.325928 
430185.187500 6745215.000000 -2882.146973 
427500.593750 6741482.500000 -3119.368896 
429993.625000 6735116.500000 -2891.983887 
432055.718750 6735073.500000 -2763.967041 
427488.906250 6735518.500000 -3203.852051 
432256.406250 6741108.000000 -2755.499023 
429020.062500 6743301.000000 -2896.004883 
427511.531250 6740207.000000 -3109.969971 
432509.781250 6738865.000000 -2787.156982 
430558.875000 6735242.000000 -2860.360107 
429985.000000 6737404.500000 -2921.404053 
426166.500000 6736859.000000 -3255.995117 
427861.218750 6735386.000000 -3147.549072 
429083.375000 6736435.500000 -2983.212891 
427664.593750 6743954.500000 -3023.865967 
429845.968750 6737032.500000 -2916.718994 
431282.375000 6742066.500000 -2829.475098 
430127.906250 6746966.500000 -2685.636963 
428102.281250 6744258.000000 -2983.591064 
431482.625000 6736373.000000 -2748.312012 
427116.781250 6745566.500000 -2968.053955 
428044.781250 6736094.500000 -3131.053955 
429068.281250 6735710.500000 -2985.183105 
432082.250000 6739049.000000 -2827.321045 
427127.218750 6742465.500000 -3130.065918 
426939.218750 6743344.500000 -3114.211914 
429194.031250 6739046.500000 -2985.971924 
430147.468750 6738001.500000 -2922.145996 
431506.593750 6736622.500000 -2735.697998 
429596.031250 6738538.000000 -2970.232910 
430544.250000 6743544.500000 -2882.242920 
428114.000000 6743920.000000 -2978.250000 
431049.375000 6740783.500000 -2877.163086 
428630.062500 6737182.500000 -3071.441895 
427678.937500 6741041.000000 -3089.019043 
429016.156250 6743113.500000 -2897.885010 
428100.968750 6747796.500000 -2818.974121 
427101.437500 6743028.500000 -3103.792969 
432247.812500 6744296.500000 -2759.657959 
431663.312500 6743246.000000 -2798.928955 
428229.875000 6740479.500000 -3060.011963 
431323.500000 6744941.000000 -2855.764893 
426568.218750 6739038.500000 -3236.472900 
431502.156250 6737310.500000 -2735.922119 
428447.281250 6738312.000000 -3066.844971 
431093.343750 6744696.000000 -2890.104004 
427910.625000 6747663.000000 -2856.843018 
431725.000000 6741707.000000 -2796.179932 
427884.625000 6741912.000000 -3060.136963 
428331.187500 6735438.500000 -3087.397949 
429775.156250 6739034.500000 -2936.886963 
430146.406250 6740652.000000 -2808.818115 
429263.250000 6745071.500000 -2797.048096 
431188.156250 6738442.500000 -2768.632080 
430306.000000 6744712.500000 -2891.008057 
432049.468750 6735673.500000 -2754.186035 
427317.312500 6737185.000000 -3161.391113 
429408.562500 6738542.000000 -2978.603027 
430156.875000 6736651.000000 -2883.833008 
428808.625000 6745756.000000 -2734.950928 
429009.687500 6738300.000000 -3018.199951 
432076.250000 6742362.500000 -2775.514893 
428443.375000 6738124.500000 -3065.295898 
428215.843750 6735303.500000 -3095.334961 
431288.125000 6741441.000000 -2833.924072 
427490.687500 6743708.000000 -3045.402100 
429591.062500 6742801.500000 -2829.832031 
429060.468750 6736236.000000 -2981.641113 
429763.187500 6736659.000000 -2901.739990 
432235.343750 6738295.500000 -2834.175049 
428825.562500 6743868.000000 -2907.416016 
427669.281250 6745080.000000 -2903.148926 
426718.156250 6748938.000000 -2949.145020 
426968.875000 6747470.000000 -2969.306885 
426715.843750 6744324.500000 -3015.990967 
429771.250000 6738847.000000 -2943.102051 
429242.406250 6744072.000000 -2847.041992 
426067.500000 6745613.500000 -3084.698975 
428107.218750 6743595.500000 -2991.033936 
427926.843750 6734934.500000 -3097.451904 
432092.343750 6744672.500000 -2777.139893 
428104.343750 6747959.000000 -2818.504883 
426535.156250 6738351.500000 -3251.496094 
426571.125000 6737375.500000 -3222.892090 
431657.843750 6738482.500000 -2890.163086 
428626.937500 6737933.000000 -3051.835938 
426563.312500 6737000.500000 -3225.543945 
430542.156250 6746145.000000 -2740.801025 
431868.437500 6744992.500000 -2799.177002 
426038.625000 6742425.500000 -3199.284912 
427486.781250 6743520.500000 -3049.798096 
429962.625000 6738130.000000 -2926.291016 
431095.968750 6740319.500000 -2895.016113 
427875.750000 6745988.000000 -2849.504883 
428107.718750 6748121.500000 -2818.321045 
431505.531250 6740173.500000 -2847.378906 
427131.906250 6743590.500000 -3071.824951 
427344.625000 6738497.500000 -3176.022949 
430354.187500 6743423.500000 -2919.604004 
431095.187500 6742983.000000 -2809.002930 
426902.281250 6739769.500000 -3201.906982 
427481.062500 6739645.000000 -3147.844971 
429013.281250 6746577.000000 -2722.701904 
431099.093750 6743170.500000 -2809.595947 
432051.562500 6734873.500000 -2829.997070 
431314.687500 6737314.500000 -2745.143066 
426934.562500 6737718.000000 -3206.729004 
431523.468750 6746437.500000 -2793.355957 
431488.093750 6739336.500000 -2871.262939 
430876.187500 6745075.500000 -2918.297119 
428023.687500 6735082.500000 -3125.502930 
429726.468750 6740298.000000 -2893.680908 
426747.125000 6737722.000000 -3220.082031 
427903.093750 6743699.500000 -2999.603027 
427489.156250 6737331.500000 -3144.023926 
430904.093750 6738310.500000 -2812.382080 
427100.875000 6748405.000000 -2916.937012 
425988.906250 6740938.500000 -3238.730957 
427672.656250 6745242.000000 -2903.867920 
427297.218750 6745225.000000 -2956.029053 
429212.531250 6736333.000000 -2966.910889 
428824.812500 6742930.000000 -2932.148926 
427713.875000 6735514.000000 -3167.773926 
426559.343750 6745815.500000 -3039.155029 
428809.937500 6747619.000000 -2755.218994 
428439.437500 6746039.000000 -2792.107910 
426152.937500 6739810.000000 -3231.525879 
432319.687500 6738744.000000 -2796.571045 
429169.531250 6739672.000000 -2951.262939 
430779.125000 6735012.500000 -2829.195068 
429767.031250 6745849.000000 -2855.430908 
426172.968750 6741672.500000 -3243.511963 
431289.906250 6745129.500000 -2863.132080 
425919.906250 6739427.000000 -3252.344971 
426370.843750 6746669.500000 -3053.212891 
430743.718750 6739614.500000 -2795.315918 
426972.343750 6735029.000000 -3206.469971 
431327.968750 6739752.000000 -2862.202881 
431693.500000 6745596.000000 -2809.861084 
428477.187500 6747851.000000 -2755.014893 
426060.468750 6746176.000000 -3091.895996 
432407.687500 6741167.500000 -2742.962891 
426584.375000 6738013.000000 -3246.710938 
431381.593750 6744127.000000 -2830.908936 
428173.375000 6739568.000000 -3074.143066 
430358.125000 6739110.000000 -2853.340088 
429003.687500 6737112.500000 -3037.673096 
427668.500000 6744142.000000 -3017.750000 
426360.187500 6740756.000000 -3216.051025 
428305.093750 6748592.500000 -2836.834961 
427860.937500 6738074.000000 -3132.020020 
427902.812500 6747288.000000 -2858.270020 
431310.031250 6736189.000000 -2770.062012 
426407.281250 6747519.000000 -3044.572998 
428311.875000 6744416.000000 -2947.454102 
428836.531250 6738991.500000 -3034.368896 
428657.875000 6747522.500000 -2749.791016 
429061.687500 6748902.000000 -2783.252930 
426020.125000 6744239.000000 -3085.907959 
427729.750000 6734476.000000 -3123.825928 
430377.875000 6744560.500000 -2881.876953 
430361.250000 6734758.500000 -2881.916992 
426735.906250 6740785.500000 -3189.960938 
429244.031250 6736044.500000 -2969.514893 
428070.750000 6746346.500000 -2835.418945 
430372.968750 6735321.000000 -2887.331055 
428252.812500 6738878.500000 -3064.607910 
426606.468750 6748077.500000 -3011.248047 
431701.875000 6736093.500000 -2733.820068 
431317.812500 6741065.500000 -2852.037109 
429241.406250 6739520.500000 -2944.768066 
432080.843750 6745594.000000 -2780.732666 
430169.062500 6743540.000000 -2942.507080 
430912.156250 6738698.000000 -2800.924072 
428786.000000 6744669.000000 -2871.507080 
425910.281250 6739865.000000 -3231.177002 
431854.125000 6744305.000000 -2786.159912 
425874.625000 6735452.000000 -3321.650879 
432427.750000 6739429.000000 -2796.935059 
426073.562500 6737798.500000 -3254.218018 
432250.437500 6739920.500000 -2793.934082 
432073.656250 6737736.000000 -2868.280029 
428621.437500 6744872.500000 -2902.052979 
426777.031250 6743660.500000 -3094.891113 
426903.281250 6745221.000000 -2993.437988 
429236.156250 6743772.000000 -2852.602051 
427029.875000 6736891.000000 -3189.334961 
428056.156250 6747447.500000 -2834.075928 
431474.562500 6735085.500000 -2808.731934 
429386.437500 6737479.500000 -2996.510010 
427669.343750 6736077.500000 -3170.841064 
426524.468750 6740540.000000 -3199.506104 
430369.593750 6735158.500000 -2874.187012 
428478.531250 6739811.500000 -3046.456055 
431887.781250 6736014.500000 -2764.560059 
426743.718750 6741160.500000 -3197.204102 
428012.156250 6747135.500000 -2841.868896 
429256.218750 6744734.000000 -2799.335938 
427487.562500 6740857.500000 -3115.565918 
426563.000000 6743290.000000 -3118.577881 
426069.625000 6737611.000000 -3257.888916 
426714.531250 6745162.000000 -3017.879883 
428998.156250 6748553.000000 -2794.749023 
426957.687500 6746932.500000 -2961.222900 
428637.312500 6746535.000000 -2738.781982 
430196.125000 6744839.500000 -2902.958984 
429970.937500 6738530.000000 -2927.830078 
430915.812500 6738873.000000 -2795.033936 
432061.406250 6742550.000000 -2774.127930 
428500.625000 6744475.000000 -2916.966064 
431528.437500 6740373.000000 -2846.456055 
429603.843750 6738913.000000 -2960.749023 
428857.375000 6735490.000000 -3032.937988 
427401.125000 6741209.500000 -3135.289062 
430218.781250 6745026.500000 -2893.275879 
428493.875000 6744150.000000 -2921.275879 
428433.250000 6734936.000000 -3040.483887 
429098.156250 6747050.500000 -2679.487061 
426527.593750 6744291.000000 -3039.040039 
428093.187500 6739319.500000 -3083.115967 
426157.375000 6740922.500000 -3232.136963 
426740.562500 6745511.500000 -3011.446045 
430539.062500 6737893.000000 -2870.344971 
427903.093750 6742799.500000 -3042.590088 
426150.812500 6748712.500000 -3027.462891 
429380.187500 6738980.000000 -2963.269043 
430189.906250 6740038.500000 -2839.089111 
432619.625000 6740538.000000 -2751.524902 
430152.437500 6737338.500000 -2885.162109 
428470.656250 6748439.000000 -2819.131104 
426577.843750 6743102.000000 -3152.072998 
429950.906250 6737568.000000 -2936.836914 
430911.625000 6743174.500000 -2827.687012 
427736.218750 6739289.500000 -3122.885010 
428434.531250 6741300.500000 -2989.951904 
431761.468750 6738055.000000 -2900.435059 
432283.531250 6737006.500000 -2853.173096 
427483.656250 6740670.000000 -3115.940918 
426556.250000 6741164.500000 -3212.684082 
429568.875000 6748041.000000 -2733.986084 
429190.375000 6740672.000000 -2919.916992 
431333.968750 6736438.500000 -2770.305908 
430536.156250 6744957.500000 -2855.205078 
426949.906250 6742056.500000 -3161.952881 
425888.406250 6740615.500000 -3239.976074 
427122.031250 6737714.500000 -3190.603027 
426339.312500 6747858.000000 -3046.341064 
429194.812500 6735483.000000 -2978.689941 
430567.937500 6745582.000000 -2788.621094 
427564.625000 6745457.000000 -2916.447998 
430174.062500 6734775.000000 -2897.416016 
428027.093750 6735245.000000 -3124.055908 
427883.312500 6746350.500000 -2847.263916 
426375.250000 6745982.000000 -3065.464111 
430229.500000 6738337.000000 -2906.495117 
430385.656250 6745836.000000 -2785.093018 
429763.187500 6737559.000000 -2969.022949 
429378.625000 6737104.500000 -2995.010010 
429621.000000 6741538.000000 -2843.197998 
427641.687500 6741954.500000 -3095.701904 
430127.437500 6738839.500000 -2893.483887 
429340.093750 6739756.000000 -2925.264893 
426766.593750 6747661.500000 -3001.822998 
427670.343750 6743329.500000 -3027.457031 
429026.312500 6747202.000000 -2738.718018 
430234.437500 6737674.500000 -2900.031006 
427549.812500 6741144.000000 -3111.483887 
429926.906250 6745420.500000 -2888.218994 
432287.406250 6737194.000000 -2856.252930 
427891.375000 6742237.000000 -3048.936035 
427820.562500 6745139.000000 -2887.879883 
431676.375000 6734868.500000 -2794.272949 
431860.906250 6743729.500000 -2782.249023 
429802.500000 6735845.500000 -2937.957031 
431478.718750 6736185.500000 -2747.813965 
429625.656250 6747164.500000 -2744.579102 
426779.656250 6734783.000000 -3225.595947 
431665.406250 6735244.000000 -2784.814941 
426936.093750 6748596.000000 -2934.919922 
427458.875000 6748485.000000 -2894.320068 
426335.187500 6741356.500000 -3230.864990 
428249.687500 6735127.500000 -3095.566895 
429214.562500 6742734.500000 -2870.760010 
426604.968750 6734499.000000 -3250.886963 
431495.125000 6739673.500000 -2862.372070 
430156.062500 6740214.000000 -2849.393066 
427373.531250 6742585.500000 -3097.376953 
427726.812500 6747842.000000 -2877.862061 
427145.468750 6737939.000000 -3191.312012 
430747.625000 6739802.000000 -2800.941895 
428490.468750 6743987.500000 -2930.513916 
428709.750000 6736506.000000 -3051.437988 
432246.250000 6742421.500000 -2768.652100 
427289.687500 6740361.500000 -3126.947998 
428262.406250 6742942.000000 -3012.594971 
427923.468750 6734772.000000 -3103.490967 
425959.500000 6740426.500000 -3240.799072 
427917.218750 6734472.000000 -3110.374023 
428469.406250 6739374.000000 -3047.040039 
430333.625000 6738835.000000 -2867.812012 
426719.781250 6736410.000000 -3240.434082 
426333.906250 6736793.000000 -3237.156982 
427860.437500 6736248.500000 -3139.574951 
427560.750000 6735367.000000 -3182.604004 
430355.750000 6744398.500000 -2888.916992 
428882.593750 6744804.500000 -2845.147949 
431864.812500 6743917.000000 -2780.198975 
429198.187500 6737446.000000 -3013.358887 
426539.062500 6738539.000000 -3244.842041 
427098.593750 6741090.500000 -3158.659912 
430533.843750 6742144.500000 -2882.426025 
429607.218750 6739075.500000 -2954.989014 
430336.218750 6742561.000000 -2912.822998 
429598.125000 6735037.000000 -2934.579102 
427482.093750 6742395.500000 -3097.152100 
431712.781250 6741119.500000 -2802.933105 
428841.218750 6738316.000000 -3033.991943 
427399.593750 6739334.000000 -3156.049072 
426433.125000 6735253.000000 -3246.045898 
429572.812500 6748228.500000 -2734.356934 
430915.531250 6743361.500000 -2823.406006 
430721.312500 6737639.500000 -2818.083008 
428619.625000 6741184.000000 -2965.697021 
426571.093750 6740976.500000 -3208.239990 
428824.781250 6746531.000000 -2721.881104 
427943.250000 6735721.500000 -3139.853027 
426980.625000 6743531.000000 -3080.648926 
426727.281250 6743974.000000 -3017.260986 
427214.187500 6741238.500000 -3155.812988 
430979.062500 6741910.000000 -2835.512939 
428852.937500 6740679.000000 -2972.678955 
430208.093750 6745414.500000 -2853.281006 
430468.500000 6741708.000000 -2906.469971 
430299.531250 6739898.500000 -2858.165039 
426144.843750 6743923.500000 -3077.059082 
430006.843750 6745656.000000 -2860.479980 
426608.343750 6734661.500000 -3245.008057 
427477.968750 6735894.000000 -3186.260010 
430564.343750 6735504.500000 -2859.507080 
427551.375000 6739418.500000 -3139.520020 
427538.625000 6735205.000000 -3187.802002 
425948.812500 6739014.000000 -3243.250000 
427940.843750 6745511.500000 -2864.340088 
427875.781250 6741487.000000 -3064.040039 
429039.843750 6747852.000000 -2776.968018 
429630.656250 6735699.000000 -2930.604980 
430717.406250 6737452.000000 -2818.938965 
426565.343750 6742502.000000 -3169.414062 
429005.250000 6738988.000000 -3009.449951 
429198.156250 6741047.000000 -2910.438965 
432320.250000 6735168.000000 -2797.194092 
428436.062500 6745876.500000 -2794.191895 
427313.125000 6741486.500000 -3140.491943 
429393.656250 6746832.000000 -2762.674072 
427295.718750 6736148.000000 -3195.607910 
429002.875000 6745177.000000 -2819.552979 
428249.375000 6746818.000000 -2800.303955 
432114.281250 6736985.000000 -2852.114990 
428273.843750 6747092.500000 -2797.560059 
426930.937500 6734842.500000 -3213.831055 
429607.250000 6734574.000000 -2930.642090 
431476.093750 6745063.000000 -2829.019043 
426179.531250 6737484.000000 -3263.774902 
428117.625000 6748596.500000 -2844.587891 
429796.250000 6737346.000000 -2948.829102 
431666.468750 6734394.000000 -2857.159912 
428461.593750 6743500.500000 -2972.533936 
431756.500000 6744119.500000 -2788.029053 
429693.406250 6736910.500000 -2924.920898 
431479.500000 6741624.500000 -2824.917969 
426921.500000 6746095.500000 -2987.001953 
430013.406250 6736066.000000 -2910.383057 
432240.281250 6739433.000000 -2789.987061 
430710.906250 6738039.500000 -2846.183105 
428645.125000 6746910.000000 -2737.108887 
431350.843750 6746253.500000 -2810.290039 
426090.156250 6745800.500000 -3089.885010 
426910.875000 6740182.000000 -3167.343018 
429050.843750 6736674.000000 -3021.126953 
428090.562500 6742795.500000 -3020.564941 
431174.093750 6740468.000000 -2884.751953 
426538.500000 6748416.500000 -3006.530029 
429191.906250 6741647.000000 -2896.395996 
429613.937500 6748402.500000 -2716.968994 
427292.281250 6744087.500000 -3039.009033 
426902.250000 6744270.500000 -2998.105957 
426769.718750 6746911.500000 -2993.708008 
428879.500000 6735652.000000 -2995.727051 
432095.500000 6741486.500000 -2759.112061 
429587.687500 6738138.000000 -2974.604004 
427696.093750 6746367.000000 -2868.844971 
431108.500000 6737318.500000 -2771.012939 
429723.062500 6740135.500000 -2892.607910 
427457.593750 6747522.500000 -2892.486084 
429309.093750 6739169.000000 -2969.760986 
429047.406250 6743713.000000 -2886.517090 
425971.218750 6735587.500000 -3320.649902 
428667.250000 6748872.500000 -2795.625000 
425824.125000 6738429.000000 -3267.302979 
426949.625000 6748345.500000 -2944.230957 
426914.468750 6746658.500000 -2971.404053 
427340.468750 6737397.000000 -3157.760986 
428111.125000 6748284.000000 -2818.075928 
431314.156250 6739990.000000 -2870.437988 
431773.187500 6738617.500000 -2876.207031 
427857.062500 6736086.000000 -3141.867920 
432049.187500 6738362.000000 -2858.434082 
428673.531250 6739270.000000 -3023.655029 
428480.625000 6736310.500000 -3070.021973 
429698.125000 6734435.000000 -2948.672119 
426732.531250 6739723.000000 -3212.597900 
426558.343750 6737663.500000 -3240.955078 
428632.125000 6741784.000000 -2964.722900 
429197.125000 6738296.000000 -3001.965088 
426158.125000 6746361.500000 -3086.679932 
429204.937500 6743172.500000 -2866.793945 
430014.375000 6745118.500000 -2904.052979 
428818.312500 6738116.500000 -3037.179932 
428813.312500 6745981.000000 -2731.659912 
426282.093750 6740607.500000 -3217.896973 
429191.156250 6737108.500000 -3015.487061 
432270.468750 6744484.000000 -2756.998047 
429997.781250 6735316.500000 -2904.263916 
426952.781250 6743094.000000 -3120.228027 
431092.843750 6741070.000000 -2873.293945 
430532.281250 6740269.000000 -2839.669922 
426535.968750 6735688.500000 -3276.446045 
429381.718750 6740855.500000 -2906.062012 
430523.718750 6738056.000000 -2874.791016 
430494.531250 6738456.500000 -2873.712891 
426360.218750 6736255.000000 -3265.701904 
431100.437500 6735131.000000 -2809.894043 
430726.781250 6738802.000000 -2818.894043 
430914.500000 6742411.500000 -2832.378906 
429954.281250 6739531.000000 -2905.612061 
431859.093750 6742742.000000 -2785.635986 
427864.343750 6736436.000000 -3141.438965 
429235.375000 6748235.500000 -2771.767090 
427317.781250 6746212.500000 -2927.594971 
426115.656250 6747025.000000 -3080.304932 
427415.656250 6748211.000000 -2871.750000 
427937.500000 6739948.000000 -3112.269043 
426105.250000 6746525.000000 -3084.906006 
431690.093750 6745433.500000 -2811.614014 
427729.937500 6748892.000000 -2876.722900 
427517.250000 6744082.500000 -3023.173096 
428856.843750 6740866.500000 -2973.305908 
428839.156250 6734615.000000 -3001.476074 
429382.531250 6737292.000000 -2995.766113 
427871.625000 6740387.000000 -3066.752930 
428943.250000 6747716.500000 -2758.623047 
427531.812500 6742982.000000 -3060.775879 
429763.437500 6738472.000000 -2951.303955 
429831.406250 6734532.000000 -2942.226074 
428617.843750 6737495.500000 -3063.250977 
427861.437500 6745301.000000 -2880.394043 
428832.625000 6738804.000000 -3036.528076 
426032.406250 6738524.500000 -3248.114990 
431318.343750 6735689.000000 -2769.787109 
429428.875000 6740417.000000 -2916.718994 
428284.781250 6745817.000000 -2815.039062 
431670.312500 6744484.000000 -2800.532959 
431870.562500 6742391.500000 -2778.970947 
428836.500000 6747093.500000 -2716.781982 
430178.718750 6735900.000000 -2891.833008 
430939.531250 6735509.000000 -2819.115967 
429245.343750 6735207.000000 -2963.202881 
429963.625000 6746282.500000 -2804.273926 
432235.593750 6740108.500000 -2785.959961 
430528.375000 6740081.500000 -2832.316895 
428246.312500 6736765.500000 -3093.058105 
432045.562500 6734586.000000 -2839.001953 
429329.625000 6742857.000000 -2861.635986 
428861.218750 6748281.000000 -2759.946045 
432097.093750 6738861.000000 -2834.479004 
428616.500000 6745535.000000 -2772.181885 
426590.875000 6743727.000000 -3040.534912 
426930.656250 6737530.500000 -3198.978027 
426964.968750 6747282.500000 -2966.949951 
425957.687500 6734938.000000 -3264.761963 
428708.687500 6740957.000000 -2953.785889 
429813.937500 6739996.500000 -2884.800049 
427877.093750 6737048.500000 -3118.290039 
430337.812500 6736334.500000 -2870.680908 
429056.000000 6744125.500000 -2864.468994 
426582.781250 6746940.500000 -3020.778076 
427925.218750 6743861.500000 -2998.322021 
430351.875000 6739710.000000 -2843.846924 
430928.000000 6745762.000000 -2871.322021 
426339.093750 6741544.000000 -3230.950928 
430526.281250 6742682.000000 -2891.907959 
427482.125000 6737894.500000 -3159.051025 
426570.531250 6746353.000000 -3039.579102 
426531.781250 6739989.500000 -3203.699951 
428811.031250 6736866.500000 -3051.218994 
430556.250000 6739618.000000 -2817.250000 
430732.531250 6734576.000000 -2854.322021 
426140.656250 6748225.000000 -3055.596924 
428513.968750 6736110.000000 -3108.708008 
426723.406250 6740185.500000 -3186.269043 
426757.750000 6744536.000000 -3009.627930 
429385.875000 6747357.000000 -2773.493896 
428426.437500 6741813.000000 -3001.160889 
429087.500000 6745638.000000 -2788.329102 
430270.656250 6734910.500000 -2891.957031 
429570.500000 6740914.000000 -2882.179932 
429956.062500 6747720.500000 -2686.863037 
427719.531250 6748392.000000 -2869.262939 
431283.937500 6745742.000000 -2840.697021 
431186.843750 6740180.500000 -2868.297119 
428275.437500 6739065.500000 -3059.949951 
428431.406250 6736649.000000 -3074.753906 
426207.062500 6745110.000000 -3074.520020 
432005.968750 6737187.500000 -2863.621094 
427655.250000 6741704.000000 -3098.093994 
431721.593750 6746045.500000 -2817.580078 
426837.156250 6745647.000000 -2999.230957 
427903.093750 6748200.500000 -2842.510010 
427460.531250 6735056.500000 -3136.183105 
426906.156250 6742657.500000 -3138.027100 
428008.562500 6738858.500000 -3090.042969 
429570.531250 6736413.000000 -2935.039062 
432279.343750 6741308.000000 -2756.998047 
429516.875000 6739240.000000 -2944.164062 
429767.093750 6737746.500000 -2963.882080 
431103.562500 6736181.000000 -2793.945068 
430758.031250 6736701.000000 -2836.418945 
427294.625000 6742399.500000 -3116.778076 
428213.750000 6737004.000000 -3096.031982 
429581.125000 6746828.000000 -2746.553955 
426347.687500 6742856.500000 -3182.165039 
429548.375000 6740752.000000 -2888.707031 
429467.937500 6737790.500000 -2976.220947 
427670.875000 6737953.000000 -3146.660889 
429398.343750 6748857.000000 -2753.666992 
431672.437500 6734681.000000 -2801.886963 
429811.562500 6745285.000000 -2915.322021 
427542.468750 6748896.000000 -2897.862061 
427335.500000 6743461.500000 -3067.420898 
429773.812500 6747974.000000 -2696.261963 
426723.937500 6738410.000000 -3231.680908 
431099.625000 6735993.500000 -2790.933105 
427647.468750 6735027.500000 -3120.736084 
426146.906250 6748525.000000 -3034.030029 
428634.218750 6743684.500000 -2936.743896 
430283.406250 6735523.000000 -2881.802002 
426920.500000 6738844.000000 -3207.965088 
431863.812500 6734865.000000 -2784.361084 
425941.531250 6741365.000000 -3252.344971 
426533.812500 6747291.500000 -3032.989990 
429394.437500 6748670.000000 -2748.083008 
426347.125000 6748233.000000 -3038.729004 
429392.906250 6741393.000000 -2871.156982 
426129.718750 6747700.000000 -3077.560059 
428644.906250 6736995.000000 -3069.712891 
429599.375000 6747703.000000 -2748.977051 
426331.781250 6743895.000000 -3061.094971 
428869.093750 6735152.000000 -2991.853027 
432052.531250 6743925.500000 -2756.946045 
426926.750000 6740944.000000 -3177.387939 
427144.437500 6736088.500000 -3204.678955 
430726.281250 6736076.500000 -2833.865967 
428114.812500 6734955.500000 -3080.750977 
428871.906250 6744292.000000 -2876.732910 
426156.031250 6748962.500000 -3010.355957 
426068.812500 6744775.500000 -3081.658936 
431097.281250 6738581.500000 -2772.740967 
432047.125000 6737361.500000 -2869.638916 
426158.968750 6735596.500000 -3313.999023 
428248.875000 6738691.000000 -3089.302979 
427355.093750 6735396.500000 -3216.242920 
427108.750000 6739777.500000 -3181.729004 
427289.968750 6736773.000000 -3173.045898 
428808.093750 6748432.000000 -2780.042969 
429020.312500 6746914.500000 -2735.792969 
428076.531250 6740320.000000 -3085.916992 
431303.468750 6743979.000000 -2833.977051 
431478.187500 6743362.500000 -2809.152100 
429035.718750 6739550.000000 -2974.060059 
426611.750000 6734824.000000 -3240.238037 
432306.656250 6742620.000000 -2787.559082 
430977.781250 6740947.500000 -2894.845947 
432490.500000 6737940.000000 -2810.290039 
427701.062500 6742103.500000 -3079.251953 
431710.406250 6742807.500000 -2797.194092 
426577.343750 6742177.000000 -3185.595947 
430567.968750 6736579.500000 -2848.450928 
426905.656250 6739031.500000 -3205.381104 
428489.937500 6747563.500000 -2756.560059 
432063.718750 6745363.500000 -2785.120117 
431171.750000 6737655.000000 -2760.496094 
430371.406250 6736146.000000 -2868.363037 
430902.218750 6746325.500000 -2809.101074 
428997.906250 6746740.000000 -2700.427002 
427903.375000 6738310.500000 -3122.241943 
429051.312500 6744801.000000 -2821.379883 
429579.843750 6743164.500000 -2827.118896 
427891.125000 6741324.000000 -3062.685059 
431298.000000 6746417.000000 -2802.617920 
426529.468750 6735376.000000 -3288.125977 
428054.406250 6736557.000000 -3120.199951 
430193.031250 6741088.500000 -2799.550049 
431329.531250 6737126.500000 -2746.208008 
432246.781250 6739745.500000 -2798.894043 
431129.062500 6736505.500000 -2801.801025 
427093.343750 6748943.000000 -2895.773926 
429955.031250 6744969.500000 -2926.082031 
429999.062500 6740780.000000 -2824.491943 
427978.125000 6739197.000000 -3097.044922 
426407.062500 6743005.500000 -3162.077881 
427105.343750 6743216.000000 -3095.293945 
430931.187500 6736009.500000 -2809.409912 
426195.125000 6742735.000000 -3200.312988 
428470.156250 6744813.000000 -2915.212891 
429767.343750 6738659.500000 -2943.899902 
428442.812500 6746201.500000 -2785.000000 
430351.843750 6744211.000000 -2899.687012 
427655.781250 6740829.000000 -3094.467041 
427711.750000 6739015.000000 -3134.899902 
428997.156250 6741301.000000 -2911.780029 
426917.406250 6735993.000000 -3224.528076 
425951.718750 6734650.500000 -3269.989990 
428836.500000 6743492.500000 -2917.152100 
428047.593750 6746134.500000 -2840.031982 
430989.218750 6744198.000000 -2872.460938 
427668.531250 6739641.000000 -3124.767090 
426935.312500 6747658.000000 -2973.745117 
430572.937500 6735917.000000 -2848.150879 
431721.625000 6741544.500000 -2796.584961 
427480.281250 6740507.500000 -3112.628906 
426119.062500 6747187.500000 -3084.316895 
426564.343750 6738851.000000 -3241.256104 
427102.718750 6747592.000000 -2945.644043 
429270.031250 6741795.500000 -2885.878906 
427625.281250 6747469.000000 -2874.510010 
430251.343750 6742988.000000 -2916.003906 
427681.250000 6745654.500000 -2893.689941 
427442.218750 6747685.000000 -2892.587891 
427110.562500 6738965.000000 -3187.791016 
431267.812500 6742266.500000 -2829.194092 
427299.343750 6739023.500000 -3173.226074 
431871.343750 6739728.500000 -2832.112061 
430042.031250 6738341.000000 -2927.926025 
428111.437500 6734793.000000 -3085.615967 
426730.437500 6738722.500000 -3224.486084 
429999.875000 6737216.500000 -2905.262939 
426580.718750 6742339.000000 -3175.996094 
427513.343750 6743895.000000 -3042.197998 
427478.437500 6744921.000000 -2927.568115 
426967.125000 6739280.500000 -3196.226074 
432366.781250 6745507.000000 -2784.966064 
427723.156250 6747667.000000 -2880.575928 
427899.187500 6743512.000000 -3005.788086 
426928.281250 6743720.000000 -3060.387939 
430534.343750 6745770.500000 -2769.846924 
428833.906250 6742467.500000 -2936.041992 
426535.687500 6740177.000000 -3202.294922 
430713.531250 6737264.500000 -2824.878906 
431445.375000 6741788.000000 -2825.436035 
428438.968750 6738812.000000 -3082.583008 
427729.968750 6743490.500000 -3011.915039 
428633.718750 6735557.000000 -3063.080078 
431295.406250 6742691.000000 -2812.352051 
430735.625000 6743728.000000 -2841.847900 
431183.468750 6740918.000000 -2865.602051 
430132.625000 6739089.500000 -2891.700928 
430614.562500 6741517.500000 -2898.719971 
430186.812500 6735387.500000 -2893.461914 
432072.593750 6742187.500000 -2766.387939 
427564.625000 6740055.500000 -3140.593018 
431460.250000 6734398.000000 -2822.846924 
428666.000000 6738907.500000 -3050.431885 
430148.468750 6746153.500000 -2808.910889 
426385.156250 6747357.000000 -3054.174072 
431359.187500 6741252.000000 -2843.075928 
429145.312500 6743911.000000 -2861.018066 
429013.093750 6734861.500000 -2980.812988 
428045.500000 6745134.500000 -2864.710938 
429970.437500 6734904.000000 -2903.047119 
430782.500000 6741476.500000 -2863.521973 
429577.500000 6746653.000000 -2743.012939 
427127.468750 6744278.500000 -2982.230957 
426527.093750 6739764.500000 -3255.531982 
431864.562500 6744805.000000 -2798.079102 
431670.093750 6739070.000000 -2865.165039 
428274.125000 6743504.500000 -2990.149902 
431113.687500 6736668.500000 -2796.677002 
429770.937500 6746036.500000 -2849.086914 
429587.656250 6742639.000000 -2830.084961 
431487.343750 6735698.000000 -2760.495117 
425990.187500 6742801.500000 -3208.610107 
428297.562500 6740128.000000 -3058.663086 
425824.375000 6735741.000000 -3322.479004 
431111.875000 6734780.500000 -2811.714111 
429287.187500 6744421.000000 -2818.523926 
426747.093750 6741323.000000 -3194.613037 
429187.468750 6747736.500000 -2779.042969 
432450.375000 6740516.500000 -2760.794922 
427025.906250 6745706.000000 -2976.518066 
430548.718750 6734754.500000 -2864.163086 
431517.250000 6740736.000000 -2839.801025 
430935.093750 6736197.000000 -2813.371094 
431501.343750 6744475.000000 -2818.027100 
429955.031250 6746770.000000 -2691.946045 
426151.906250 6738860.000000 -3262.364014 
430712.187500 6741703.000000 -2878.822021 
429000.781250 6745977.500000 -2703.451904 
429385.125000 6741918.000000 -2869.999023 
427688.875000 6737015.000000 -3130.727051 
432263.437500 6745046.500000 -2772.873047 
427682.343750 6736702.500000 -3143.422119 
430911.625000 6739573.500000 -2787.593994 
427740.375000 6744891.000000 -2901.697998 
427705.468750 6746817.000000 -2857.981934 
428050.000000 6735444.500000 -3126.219971 
431482.343750 6743562.500000 -2814.937988 
428570.437500 6740622.500000 -3021.010986 
426777.031250 6742760.500000 -3142.854004 
428426.187500 6740000.000000 -3047.058105 
426335.687500 6744982.500000 -3061.513916 
427538.843750 6747820.500000 -2880.801025 
428704.250000 6740744.500000 -2992.138916 
428076.562500 6735819.000000 -3129.797119 
426374.781250 6736954.500000 -3239.266113 
427131.937500 6734588.000000 -3184.970947 
432460.562500 6741004.000000 -2753.989014 
426358.343750 6745169.500000 -3057.017090 
426348.750000 6736605.000000 -3247.995117 
426332.031250 6748408.500000 -3027.240967 
428049.937500 6744446.500000 -2977.068115 
432559.218750 6741239.500000 -2769.025879 
425896.750000 6736514.500000 -3269.084961 
427508.406250 6741857.500000 -3112.964111 
432099.406250 6741674.000000 -2759.770996 
428462.875000 6748064.000000 -2784.468994 
430060.718750 6747343.000000 -2684.747070 
429001.062500 6741488.500000 -2908.033936 
427705.000000 6737789.500000 -3141.809082 
429825.937500 6736070.000000 -2927.774902 
428429.281250 6745551.500000 -2798.862061 
430572.656250 6737705.000000 -2833.627930 
426161.562500 6738422.000000 -3261.309082 
429207.781250 6746910.500000 -2726.730957 
432052.812500 6739437.000000 -2813.377930 
426961.906250 6738130.000000 -3206.595947 
429388.500000 6742080.500000 -2868.693115 
426409.937500 6738642.000000 -3252.804932 
427473.531250 6736581.500000 -3155.977051 
430523.156250 6739831.500000 -2821.865967 
428649.031250 6747097.500000 -2736.208984 
431126.687500 6739994.000000 -2846.063965 
426552.875000 6736501.000000 -3247.260010 
426907.250000 6736406.000000 -3226.021973 
429043.468750 6748027.000000 -2785.983887 
429190.093750 6743360.000000 -2867.840088 
432439.468750 6739991.500000 -2776.983887 
426084.218750 6736510.500000 -3267.320068 
429763.125000 6745661.500000 -2874.275879 
427161.093750 6739589.000000 -3182.766113 
429956.125000 6738718.000000 -2921.766113 
430721.593750 6739452.500000 -2796.993896 
431140.468750 6744257.500000 -2860.025879 
426908.031250 6735543.000000 -3251.787109 
426774.187500 6738121.500000 -3224.074951 
431104.093750 6734405.500000 -2819.395020 
429210.937500 6739859.000000 -2941.685059 
426344.312500 6739993.500000 -3219.763916 
430545.281250 6745395.000000 -2818.681885 
430602.312500 6741830.500000 -2888.113037 
430384.406250 6740372.000000 -2778.803955 
429032.875000 6737612.000000 -3021.877930 
427524.281250 6739018.500000 -3152.947998 
429014.875000 6742151.000000 -2910.187012 
431685.968750 6739832.500000 -2842.547119 
428625.125000 6738745.500000 -3054.979004 
426388.843750 6737629.500000 -3257.589111 
427530.750000 6748333.500000 -2883.374023 
427098.062500 6744666.500000 -2976.092041 
428868.312500 6739616.000000 -2991.850098 
427718.281250 6734826.000000 -3123.358887 
429468.718750 6736927.500000 -2985.737061 
430533.843750 6743044.500000 -2891.458984 
430492.437500 6741957.500000 -2893.206055 
427106.125000 6740553.000000 -3146.642090 
427869.531250 6739386.500000 -3107.681885 
427351.875000 6747849.500000 -2893.361084 
428438.406250 6741488.000000 -2995.477051 
429774.125000 6736283.500000 -2925.622070 
429739.718750 6744536.500000 -2972.495117 
429732.156250 6745074.500000 -2936.159912 
427806.500000 6741763.500000 -3076.152100 
430015.968750 6741592.500000 -2832.832031 
428309.281250 6740690.500000 -3017.683105 
427631.812500 6740579.500000 -3094.923096 
429049.500000 6741112.500000 -2919.887939 
431896.062500 6745417.000000 -2798.606934 
430322.968750 6737422.500000 -2866.125000 
426348.187500 6746482.500000 -3058.420898 
426000.875000 6741513.500000 -3219.520996 
427496.906250 6745808.500000 -2917.393066 
426619.562500 6735199.000000 -3233.794922 
430103.968750 6740415.500000 -2819.312988 
428887.781250 6745054.500000 -2842.586914 
432315.531250 6738544.000000 -2811.000977 
427539.875000 6744270.000000 -2996.654053 
428246.250000 6747568.500000 -2797.429932 
426783.593750 6734970.500000 -3226.209961 
430540.593750 6744270.000000 -2871.577881 
428442.875000 6738999.500000 -3049.791016 
427324.562500 6746537.500000 -2918.055908 
432296.531250 6737631.500000 -2832.955078 
428449.843750 6746539.000000 -2765.781982 
432056.187500 6744100.500000 -2758.864990 
426101.406250 6738235.500000 -3256.311035 
426752.062500 6737059.500000 -3212.894043 
431480.000000 6745250.500000 -2829.530029 
428056.718750 6742071.000000 -3037.631104 
428050.718750 6745384.500000 -2848.898926 
427286.031250 6745588.000000 -2944.769043 
430422.906250 6744022.000000 -2888.613037 
431294.375000 6743541.500000 -2827.719971 
426910.093750 6738344.000000 -3212.524902 
429275.500000 6739357.500000 -2942.777100 
428830.531250 6742305.000000 -2936.434082 
429202.093750 6736733.000000 -3001.770996 
428466.531250 6742837.500000 -2985.547119 
432518.375000 6739277.500000 -2805.500977 
428105.156250 6738994.000000 -3078.260010 
427863.031250 6739074.000000 -3112.323975 
429949.062500 6743782.000000 -2970.114014 
427868.250000 6736623.500000 -3131.635986 
426930.375000 6741119.000000 -3177.555908 
428856.531250 6748056.000000 -2764.269043 
426338.562500 6744220.000000 -3061.284912 
429202.343750 6742147.000000 -2890.020020 
429044.562500 6742675.500000 -2894.035889 
430975.687500 6741747.500000 -2838.503906 
430347.937500 6743123.500000 -2920.409912 
428629.812500 6739871.000000 -3021.573975 
428618.593750 6742934.500000 -2965.235107 
428630.312500 6743497.000000 -2949.750977 
426754.625000 6746186.500000 -3016.322998 
430017.312500 6736253.500000 -2904.302979 
427261.093750 6734485.500000 -3171.198975 
427294.125000 6743274.500000 -3074.791016 
426675.750000 6740599.500000 -3189.152100 
430819.187500 6744139.000000 -2828.397949 
429200.562500 6734858.000000 -2967.500000 
428627.937500 6745185.000000 -2845.563965 
427362.593750 6742960.500000 -3074.415039 
427562.031250 6744432.000000 -2985.264893 
431067.562500 6745259.000000 -2889.801025 
430001.687500 6735503.500000 -2910.775879 
432516.812500 6734701.000000 -2797.218018 
430722.593750 6742203.000000 -2863.066895 
427254.781250 6747689.000000 -2916.279053 
429196.093750 6740046.500000 -2939.918945 
