18949.029296875 5416.81982421875 -2797.998046875
18949.029296875 5556.56201171875 -2795.758544921875
19144.51953125 5416.81982421875 -2805.006103515625
19144.51953125 5556.56201171875 -2803.4697265625
19340.009765625 5416.81982421875 -2812.027587890625
19340.009765625 5556.56201171875 -2810.899169921875
9956.5107421875 5696.3037109375 -3264.80078125
10152.0009765625 5696.3037109375 -3258.44140625
10347.490234375 5696.3037109375 -3250.914794921875
10542.9794921875 5696.3037109375 -3242.244140625
10738.4697265625 5696.3037109375 -3232.451904296875
10933.958984375 5696.3037109375 -3221.560546875
11129.4482421875 5696.3037109375 -3209.6181640625
11324.9375 5696.3037109375 -3196.822265625
11520.427734375 5696.3037109375 -3183.4248046875
11715.9169921875 5696.3037109375 -3169.6796875
11911.40625 5696.3037109375 -3155.853515625
12106.896484375 5696.3037109375 -3142.218994140625
12302.3857421875 5696.3037109375 -3129.033447265625
12497.875 5696.3037109375 -3116.422607421875
12693.3642578125 5696.3037109375 -3104.4453125
12888.8544921875 5696.3037109375 -3093.151123046875
13084.34375 5696.3037109375 -3082.501220703125
13279.8330078125 5696.3037109375 -3072.4033203125
13475.3232421875 5696.3037109375 -3062.800537109375
13670.8125 5696.3037109375 -3054.1318359375
13866.3017578125 5696.3037109375 -3047.19384765625
14061.791015625 5696.3037109375 -3042.75244140625
14257.28125 5696.3037109375 -3040.928466796875
14452.7705078125 5696.3037109375 -3041.29052734375
14648.259765625 5696.3037109375 -3043.360107421875
14843.75 5696.3037109375 -3046.14697265625
15039.2392578125 5696.3037109375 -3048.200927734375
15234.728515625 5696.3037109375 -3048.28125
15430.2177734375 5696.3037109375 -3045.464111328125
15625.7080078125 5696.3037109375 -3038.396728515625
15821.197265625 5696.3037109375 -3021.812744140625
16016.6865234375 5696.3037109375 -2993.45458984375
16212.1767578125 5696.3037109375 -2957.994384765625
16407.666015625 5696.3037109375 -2923.874267578125
16603.15625 5696.3037109375 -2895.333251953125
16798.64453125 5696.3037109375 -2871.32275390625
16994.134765625 5696.3037109375 -2848.997802734375
17189.623046875 5696.3037109375 -2829.195068359375
18362.560546875 5696.3037109375 -2775.540771484375
18558.05078125 5696.3037109375 -2778.526123046875
18753.541015625 5696.3037109375 -2788.851806640625
18949.029296875 5696.3037109375 -2797.017822265625
19144.51953125 5696.3037109375 -2804.6796875
19340.009765625 5696.3037109375 -2812.010498046875
10152.0009765625 5836.04541015625 -3270.158447265625
10347.490234375 5836.04541015625 -3262.4658203125
10542.9794921875 5836.04541015625 -3253.458984375
10738.4697265625 5836.04541015625 -3243.1337890625
10933.958984375 5836.04541015625 -3231.4853515625
11129.4482421875 5836.04541015625 -3218.544189453125
11324.9375 5836.04541015625 -3204.546630859375
11520.427734375 5836.04541015625 -3189.802978515625
11715.9169921875 5836.04541015625 -3174.63037109375
11911.40625 5836.04541015625 -3159.389404296875
12106.896484375 5836.04541015625 -3144.459228515625
12302.3857421875 5836.04541015625 -3130.19189453125
12497.875 5836.04541015625 -3116.702392578125
12693.3642578125 5836.04541015625 -3103.98291015625
12888.8544921875 5836.04541015625 -3092.004150390625
13084.34375 5836.04541015625 -3080.513671875
13279.8330078125 5836.04541015625 -3069.1220703125
13475.3232421875 5836.04541015625 -3057.522705078125
13670.8125 5836.04541015625 -3046.5869140625
13866.3017578125 5836.04541015625 -3038.02587890625
14061.791015625 5836.04541015625 -3033.4794921875
14257.28125 5836.04541015625 -3033.451171875
14452.7705078125 5836.04541015625 -3037.3916015625
14648.259765625 5836.04541015625 -3044.34423828125
14843.75 5836.04541015625 -3052.124755859375
15039.2392578125 5836.04541015625 -3057.7451171875
15234.728515625 5836.04541015625 -3059.71533203125
15430.2177734375 5836.04541015625 -3058.5595703125
15625.7080078125 5836.04541015625 -3056.318603515625
15821.197265625 5836.04541015625 -3043.169677734375
16016.6865234375 5836.04541015625 -3008.83349609375
16212.1767578125 5836.04541015625 -2965.447998046875
16407.666015625 5836.04541015625 -2924.21337890625
16603.15625 5836.04541015625 -2898.194091796875
16798.64453125 5836.04541015625 -2870.950439453125
16994.134765625 5836.04541015625 -2843.931396484375
18558.05078125 5836.04541015625 -2788.100830078125
18753.541015625 5836.04541015625 -2795.0419921875
18949.029296875 5836.04541015625 -2801.63525390625
19144.51953125 5836.04541015625 -2808.46923828125
19340.009765625 5836.04541015625 -2815.22705078125
10347.490234375 5975.787109375 -3275.057373046875
10542.9794921875 5975.787109375 -3265.738037109375
10738.4697265625 5975.787109375 -3254.87548828125
10933.958984375 5975.787109375 -3242.42626953125
11129.4482421875 5975.787109375 -3228.393798828125
11324.9375 5975.787109375 -3213.05078125
11520.427734375 5975.787109375 -3196.767578125
11715.9169921875 5975.787109375 -3179.930419921875
11911.40625 5975.787109375 -3163.03564453125
12106.896484375 5975.787109375 -3146.62744140625
12302.3857421875 5975.787109375 -3131.202880859375
12497.875 5975.787109375 -3116.852294921875
12693.3642578125 5975.787109375 -3103.457275390625
12888.8544921875 5975.787109375 -3090.85791015625
13084.34375 5975.787109375 -3078.43408203125
13279.8330078125 5975.787109375 -3065.25634765625
13475.3232421875 5975.787109375 -3050.4921875
13670.8125 5975.787109375 -3035.599853515625
13866.3017578125 5975.787109375 -3023.668701171875
14061.791015625 5975.787109375 -3017.663818359375
14257.28125 5975.787109375 -3019.240966796875
14452.7705078125 5975.787109375 -3028.409423828125
14648.259765625 5975.787109375 -3043.04931640625
14843.75 5975.787109375 -3058.135009765625
15039.2392578125 5975.787109375 -3067.0302734375
15234.728515625 5975.787109375 -3068.083251953125
15430.2177734375 5975.787109375 -3063.672607421875
15625.7080078125 5975.787109375 -3066.98876953125
15821.197265625 5975.787109375 -3065.5419921875
16016.6865234375 5975.787109375 -3029.828369140625
16212.1767578125 5975.787109375 -2983.6103515625
16407.666015625 5975.787109375 -2936.576171875
16603.15625 5975.787109375 -2906.64208984375
16798.64453125 5975.787109375 -2869.782958984375
16994.134765625 5975.787109375 -2852.43798828125
18558.05078125 5975.787109375 -2803.512451171875
18753.541015625 5975.787109375 -2805.23046875
18949.029296875 5975.787109375 -2809.34033203125
19144.51953125 5975.787109375 -2814.7138671875
19340.009765625 5975.787109375 -2820.453369140625
10542.9794921875 6115.52880859375 -3279.30712890625
10738.4697265625 6115.52880859375 -3267.96435546875
10933.958984375 6115.52880859375 -3254.69921875
11129.4482421875 6115.52880859375 -3239.452392578125
11324.9375 6115.52880859375 -3222.52294921875
11520.427734375 6115.52880859375 -3204.33984375
11715.9169921875 6115.52880859375 -3185.369384765625
11911.40625 6115.52880859375 -3166.342041015625
12106.896484375 6115.52880859375 -3148.104248046875
12302.3857421875 6115.52880859375 -3131.42138671875
12497.875 6115.52880859375 -3116.359375
12693.3642578125 6115.52880859375 -3102.640380859375
12888.8544921875 6115.52880859375 -3089.942626953125
13084.34375 6115.52880859375 -3077.138671875
13279.8330078125 6115.52880859375 -3062.384765625
13475.3232421875 6115.52880859375 -3043.575927734375
13670.8125 6115.52880859375 -3022.635009765625
13866.3017578125 6115.52880859375 -3004.443359375
14061.791015625 6115.52880859375 -2993.845458984375
14257.28125 6115.52880859375 -2995.220458984375
14452.7705078125 6115.52880859375 -3011.571533203125
14648.259765625 6115.52880859375 -3037.81298828125
14843.75 6115.52880859375 -3064.391845703125
15039.2392578125 6115.52880859375 -3077.083251953125
15234.728515625 6115.52880859375 -3077.296630859375
15430.2177734375 6115.52880859375 -3066.725341796875
15625.7080078125 6115.52880859375 -3069.568603515625
15821.197265625 6115.52880859375 -3079.718505859375
16016.6865234375 6115.52880859375 -3051.461669921875
16212.1767578125 6115.52880859375 -2998.5234375
16407.666015625 6115.52880859375 -2946.004638671875
16603.15625 6115.52880859375 -2907.169921875
16798.64453125 6115.52880859375 -2868.7958984375
18753.541015625 6115.52880859375 -2817.309814453125
18949.029296875 6115.52880859375 -2819.853271484375
19144.51953125 6115.52880859375 -2823.558837890625
19340.009765625 6115.52880859375 -2827.781982421875
10738.4697265625 6255.2705078125 -3282.73583984375
10933.958984375 6255.2705078125 -3268.67236328125
11129.4482421875 6255.2705078125 -3252.048095703125
11324.9375 6255.2705078125 -3233.167724609375
11520.427734375 6255.2705078125 -3212.51513671875
11715.9169921875 6255.2705078125 -3190.652099609375
11911.40625 6255.2705078125 -3168.7080078125
12106.896484375 6255.2705078125 -3148.052490234375
12302.3857421875 6255.2705078125 -3129.915283203125
12497.875 6255.2705078125 -3114.328857421875
12693.3642578125 6255.2705078125 -3100.930908203125
12888.8544921875 6255.2705078125 -3089.640625
13084.34375 6255.2705078125 -3078.494140625
13279.8330078125 6255.2705078125 -3063.749267578125
13475.3232421875 6255.2705078125 -3040.715087890625
13670.8125 6255.2705078125 -3011.501953125
13866.3017578125 6255.2705078125 -2984.431640625
14061.791015625 6255.2705078125 -2967.719970703125
14257.28125 6255.2705078125 -2962.255615234375
14452.7705078125 6255.2705078125 -2983.180908203125
14648.259765625 6255.2705078125 -3028.31201171875
14843.75 6255.2705078125 -3070.443359375
15039.2392578125 6255.2705078125 -3085.96240234375
15234.728515625 6255.2705078125 -3086.947509765625
15430.2177734375 6255.2705078125 -3077.1611328125
15625.7080078125 6255.2705078125 -3069.775634765625
15821.197265625 6255.2705078125 -3078.30615234375
16016.6865234375 6255.2705078125 -3058.1171875
16212.1767578125 6255.2705078125 -3006.4912109375
16407.666015625 6255.2705078125 -2955.59814453125
16603.15625 6255.2705078125 -2913.44580078125
16798.64453125 6255.2705078125 -2884.143310546875
18753.541015625 6255.2705078125 -2831.662841796875
18949.029296875 6255.2705078125 -2833.816162109375
19144.51953125 6255.2705078125 -2835.367919921875
19340.009765625 6255.2705078125 -2837.369384765625
11129.4482421875 6395.01220703125 -3266.49462890625
11324.9375 6395.01220703125 -3245.227294921875
11520.427734375 6395.01220703125 -3221.390869140625
11715.9169921875 6395.01220703125 -3195.656494140625
11911.40625 6395.01220703125 -3169.701171875
12106.896484375 6395.01220703125 -3145.70654296875
12302.3857421875 6395.01220703125 -3125.733154296875
12497.875 6395.01220703125 -3109.701904296875
12693.3642578125 6395.01220703125 -3097.394287109375
12888.8544921875 6395.01220703125 -3090.18310546875
13084.34375 6395.01220703125 -3084.75390625
13279.8330078125 6395.01220703125 -3073.811279296875
13475.3232421875 6395.01220703125 -3049.456298828125
13670.8125 6395.01220703125 -3009.426025390625
13866.3017578125 6395.01220703125 -2969.241455078125
14061.791015625 6395.01220703125 -2956.4677734375
14257.28125 6395.01220703125 -2940.38916015625
14452.7705078125 6395.01220703125 -2960.373779296875
14648.259765625 6395.01220703125 -3034.22119140625
14843.75 6395.01220703125 -3076.539306640625
15039.2392578125 6395.01220703125 -3090.99658203125
15234.728515625 6395.01220703125 -3088.230224609375
15430.2177734375 6395.01220703125 -3083.396728515625
15625.7080078125 6395.01220703125 -3075.284423828125
15821.197265625 6395.01220703125 -3074.226318359375
16016.6865234375 6395.01220703125 -3058.493896484375
16212.1767578125 6395.01220703125 -3013.811767578125
16407.666015625 6395.01220703125 -2969.07666015625
16603.15625 6395.01220703125 -2935.42529296875
18949.029296875 6395.01220703125 -2852.6025390625
19144.51953125 6395.01220703125 -2850.425048828125
19340.009765625 6395.01220703125 -2849.21044921875
11324.9375 6534.75390625 -3259.1728515625
11520.427734375 6534.75390625 -3231.671142578125
11715.9169921875 6534.75390625 -3201.27880859375
11911.40625 6534.75390625 -3169.96826171875
12106.896484375 6534.75390625 -3141.01806640625
12302.3857421875 6534.75390625 -3118.568359375
12497.875 6534.75390625 -3102.0576171875
12693.3642578125 6534.75390625 -3090.42529296875
12888.8544921875 6534.75390625 -3087.6728515625
13084.34375 6534.75390625 -3093.85693359375
13279.8330078125 6534.75390625 -3090.750244140625
13475.3232421875 6534.75390625 -3069.089111328125
13670.8125 6534.75390625 -3016.946533203125
13866.3017578125 6534.75390625 -2956.447265625
14061.791015625 6534.75390625 -2949.123291015625
14257.28125 6534.75390625 -2945.340576171875
14452.7705078125 6534.75390625 -2949.029541015625
14648.259765625 6534.75390625 -3022.0
14843.75 6534.75390625 -3063.161865234375
15039.2392578125 6534.75390625 -3082.089599609375
15234.728515625 6534.75390625 -3090.8955078125
15430.2177734375 6534.75390625 -3087.859619140625
15625.7080078125 6534.75390625 -3071.1943359375
15821.197265625 6534.75390625 -3062.5869140625
16016.6865234375 6534.75390625 -3051.93896484375
16212.1767578125 6534.75390625 -3017.321533203125
16407.666015625 6534.75390625 -2976.16259765625
16603.15625 6534.75390625 -2949.373291015625
19144.51953125 6534.75390625 -2867.52880859375
19340.009765625 6534.75390625 -2862.308837890625
11520.427734375 6674.49609375 -3244.4384765625
11715.9169921875 6674.49609375 -3208.92724609375
11911.40625 6674.49609375 -3171.2392578125
12106.896484375 6674.49609375 -3135.49609375
12302.3857421875 6674.49609375 -3110.3173828125
12497.875 6674.49609375 -3095.297119140625
12693.3642578125 6674.49609375 -3079.82666015625
12888.8544921875 6674.49609375 -3079.9013671875
13084.34375 6674.49609375 -3097.7548828125
13279.8330078125 6674.49609375 -3092.75048828125
13475.3232421875 6674.49609375 -3077.107177734375
13670.8125 6674.49609375 -3030.28857421875
13866.3017578125 6674.49609375 -2978.15966796875
14061.791015625 6674.49609375 -2949.41015625
14257.28125 6674.49609375 -2926.650634765625
14452.7705078125 6674.49609375 -2932.686279296875
14648.259765625 6674.49609375 -3003.431640625
14843.75 6674.49609375 -3054.4599609375
15039.2392578125 6674.49609375 -3070.811767578125
15234.728515625 6674.49609375 -3096.902099609375
15430.2177734375 6674.49609375 -3106.823486328125
15625.7080078125 6674.49609375 -3081.390869140625
15821.197265625 6674.49609375 -3072.860107421875
16016.6865234375 6674.49609375 -3050.239013671875
16212.1767578125 6674.49609375 -3016.393310546875
16407.666015625 6674.49609375 -2982.052734375
19144.51953125 6674.49609375 -2884.745361328125
19340.009765625 6674.49609375 -2875.27685546875
11911.40625 6814.23779296875 -3178.388671875
12106.896484375 6814.23779296875 -3133.218017578125
12302.3857421875 6814.23779296875 -3102.819580078125
12497.875 6814.23779296875 -3098.0029296875
12693.3642578125 6814.23779296875 -3084.861083984375
12888.8544921875 6814.23779296875 -3089.247802734375
13084.34375 6814.23779296875 -3105.22802734375
13279.8330078125 6814.23779296875 -3129.35302734375
13866.3017578125 6814.23779296875 -2995.27490234375
14061.791015625 6814.23779296875 -2953.89013671875
14257.28125 6814.23779296875 -2935.316650390625
14452.7705078125 6814.23779296875 -2923.470703125
14648.259765625 6814.23779296875 -2976.7451171875
14843.75 6814.23779296875 -3030.195556640625
15039.2392578125 6814.23779296875 -3057.386962890625
15234.728515625 6814.23779296875 -3092.441650390625
15430.2177734375 6814.23779296875 -3115.435546875
15625.7080078125 6814.23779296875 -3100.381591796875
15821.197265625 6814.23779296875 -3085.39990234375
16016.6865234375 6814.23779296875 -3054.819091796875
16212.1767578125 6814.23779296875 -3011.857177734375
16407.666015625 6814.23779296875 -2989.129150390625
19340.009765625 6814.23779296875 -2886.658203125
12302.3857421875 6953.9794921875 -3107.916015625
12497.875 6953.9794921875 -3109.3916015625
12693.3642578125 6953.9794921875 -3110.665283203125
12888.8544921875 6953.9794921875 -3106.625
13084.34375 6953.9794921875 -3115.318115234375
13279.8330078125 6953.9794921875 -3141.006103515625
14257.28125 6953.9794921875 -2936.66748046875
14452.7705078125 6953.9794921875 -2922.780029296875
14648.259765625 6953.9794921875 -2968.072021484375
14843.75 6953.9794921875 -3008.151123046875
15039.2392578125 6953.9794921875 -3029.468017578125
15234.728515625 6953.9794921875 -3071.078857421875
15430.2177734375 6953.9794921875 -3101.28076171875
15625.7080078125 6953.9794921875 -3093.37890625
15821.197265625 6953.9794921875 -3085.72216796875
16016.6865234375 6953.9794921875 -3053.286865234375
16212.1767578125 6953.9794921875 -3008.061767578125
16407.666015625 6953.9794921875 -2983.06884765625
14648.259765625 7093.72119140625 -2968.04638671875
14843.75 7093.72119140625 -2996.98486328125
15039.2392578125 7093.72119140625 -2996.352294921875
15234.728515625 7093.72119140625 -3021.85693359375
15430.2177734375 7093.72119140625 -3055.90283203125
15625.7080078125 7093.72119140625 -3062.01220703125
15821.197265625 7093.72119140625 -3063.7373046875
16016.6865234375 7093.72119140625 -3035.368896484375
16212.1767578125 7093.72119140625 -2994.834716796875
15039.2392578125 7233.462890625 -2974.939453125
15234.728515625 7233.462890625 -2980.755615234375
15430.2177734375 7233.462890625 -3006.11376953125
15625.7080078125 7233.462890625 -3024.8427734375
15821.197265625 7233.462890625 -3049.88525390625
16016.6865234375 7233.462890625 -3019.79248046875
16212.1767578125 7233.462890625 -2986.59765625
16407.666015625 7233.462890625 -2954.14892578125
14843.75 7373.20458984375 -2951.189453125
15039.2392578125 7373.20458984375 -2950.76025390625
15234.728515625 7373.20458984375 -2962.904296875
15430.2177734375 7373.20458984375 -2967.522705078125
15625.7080078125 7373.20458984375 -3009.822998046875
15821.197265625 7373.20458984375 -3010.296142578125
16016.6865234375 7373.20458984375 -2992.521728515625
16212.1767578125 7373.20458984375 -2963.893798828125
16407.666015625 7373.20458984375 -2933.19970703125
15039.2392578125 7512.9462890625 -2917.5419921875
15234.728515625 7512.9462890625 -2950.779296875
15430.2177734375 7512.9462890625 -2899.59033203125
15625.7080078125 7512.9462890625 -2899.342041015625
15821.197265625 7512.9462890625 -2953.726318359375
16016.6865234375 7512.9462890625 -2982.82177734375
16212.1767578125 7512.9462890625 -2968.3466796875
16407.666015625 7512.9462890625 -2926.655029296875
15234.728515625 7652.6884765625 -2849.14990234375
15430.2177734375 7652.6884765625 -2845.80419921875
15625.7080078125 7652.6884765625 -2867.573974609375
15821.197265625 7652.6884765625 -2931.0263671875
16016.6865234375 7652.6884765625 -2965.470458984375
16212.1767578125 7652.6884765625 -2958.2939453125
16407.666015625 7652.6884765625 -2924.168701171875
15234.728515625 7792.43017578125 -2840.343017578125
15430.2177734375 7792.43017578125 -2843.0771484375
15625.7080078125 7792.43017578125 -2858.278076171875
15821.197265625 7792.43017578125 -2905.806640625
16016.6865234375 7792.43017578125 -2945.1650390625
16212.1767578125 7792.43017578125 -2944.650634765625
16407.666015625 7792.43017578125 -2935.886962890625
16603.15625 7792.43017578125 -2959.317626953125
15234.728515625 7932.171875 -2828.53076171875
15430.2177734375 7932.171875 -2840.133056640625
15625.7080078125 7932.171875 -2848.981689453125
15821.197265625 7932.171875 -2865.662353515625
16016.6865234375 7932.171875 -2908.866943359375
16212.1767578125 7932.171875 -2927.7373046875
16407.666015625 7932.171875 -2970.74462890625
16603.15625 7932.171875 -3002.437744140625
15234.728515625 8071.91357421875 -2816.740234375
15430.2177734375 8071.91357421875 -2834.5595703125
15625.7080078125 8071.91357421875 -2833.91943359375
15821.197265625 8071.91357421875 -2842.228759765625
16016.6865234375 8071.91357421875 -2860.02490234375
16212.1767578125 8071.91357421875 -2916.005859375
16407.666015625 8071.91357421875 -2992.53369140625
16603.15625 8071.91357421875 -3028.41748046875
15234.728515625 8211.6552734375 -2784.042724609375
15430.2177734375 8211.6552734375 -2815.9677734375
15625.7080078125 8211.6552734375 -2825.883056640625
15821.197265625 8211.6552734375 -2824.262939453125
16016.6865234375 8211.6552734375 -2844.353515625
16212.1767578125 8211.6552734375 -2887.500244140625
16407.666015625 8211.6552734375 -2974.201171875
16603.15625 8211.6552734375 -3029.302978515625
15430.2177734375 8351.3974609375 -2800.6826171875
15625.7080078125 8351.3974609375 -2805.99951171875
15821.197265625 8351.3974609375 -2811.428955078125
16016.6865234375 8351.3974609375 -2838.3505859375
16212.1767578125 8351.3974609375 -2874.929931640625
16407.666015625 8351.3974609375 -2939.682861328125
16603.15625 8351.3974609375 -3015.31103515625
15430.2177734375 8491.138671875 -2777.610107421875
15625.7080078125 8491.138671875 -2793.409912109375
15821.197265625 8491.138671875 -2798.233154296875
16016.6865234375 8491.138671875 -2838.889404296875
16212.1767578125 8491.138671875 -2870.512451171875
16407.666015625 8491.138671875 -2925.905517578125
16603.15625 8491.138671875 -2995.5732421875
15234.728515625 8630.880859375 -2801.467529296875
15430.2177734375 8630.880859375 -2758.861572265625
15625.7080078125 8630.880859375 -2786.928955078125
15821.197265625 8630.880859375 -2832.091552734375
16016.6865234375 8630.880859375 -2860.9892578125
16212.1767578125 8630.880859375 -2884.21826171875
16407.666015625 8630.880859375 -2937.378662109375
16603.15625 8630.880859375 -3016.769287109375
15234.728515625 8770.6220703125 -2805.329345703125
15430.2177734375 8770.6220703125 -2753.540283203125
15625.7080078125 8770.6220703125 -2804.0908203125
15821.197265625 8770.6220703125 -2845.580810546875
16016.6865234375 8770.6220703125 -2890.49365234375
16212.1767578125 8770.6220703125 -2913.49560546875
16407.666015625 8770.6220703125 -2970.984619140625
16603.15625 8770.6220703125 -3038.822021484375
16798.64453125 8770.6220703125 -3084.158935546875
15234.728515625 8910.3642578125 -2800.418212890625
15430.2177734375 8910.3642578125 -2790.021240234375
15625.7080078125 8910.3642578125 -2815.17138671875
15821.197265625 8910.3642578125 -2858.991943359375
16016.6865234375 8910.3642578125 -2914.388671875
16212.1767578125 8910.3642578125 -2958.442626953125
16407.666015625 8910.3642578125 -3007.379638671875
16603.15625 8910.3642578125 -3056.218505859375
16798.64453125 8910.3642578125 -3076.2392578125
16994.134765625 8910.3642578125 -3077.379150390625
15039.2392578125 9050.10546875 -2838.960205078125
15234.728515625 9050.10546875 -2831.65869140625
15430.2177734375 9050.10546875 -2823.7119140625
15625.7080078125 9050.10546875 -2827.635986328125
15821.197265625 9050.10546875 -2888.165283203125
16016.6865234375 9050.10546875 -2968.96728515625
16212.1767578125 9050.10546875 -2994.590087890625
16407.666015625 9050.10546875 -3032.900634765625
16603.15625 9050.10546875 -3072.3271484375
16798.64453125 9050.10546875 -3071.181396484375
16994.134765625 9050.10546875 -3062.63427734375
17189.623046875 9050.10546875 -3039.97998046875
15039.2392578125 9189.84765625 -2903.07666015625
15234.728515625 9189.84765625 -2872.885498046875
15430.2177734375 9189.84765625 -2876.475341796875
15625.7080078125 9189.84765625 -2895.906005859375
15821.197265625 9189.84765625 -2935.912109375
16016.6865234375 9189.84765625 -2998.489013671875
16212.1767578125 9189.84765625 -3019.88427734375
16407.666015625 9189.84765625 -3037.09423828125
16603.15625 9189.84765625 -3062.5634765625
16798.64453125 9189.84765625 -3068.1748046875
16994.134765625 9189.84765625 -3051.975830078125
17189.623046875 9189.84765625 -3017.11328125
19340.009765625 9189.84765625 -2703.871337890625
15039.2392578125 9329.58984375 -2972.140380859375
15234.728515625 9329.58984375 -2948.158935546875
15430.2177734375 9329.58984375 -2925.5732421875
15625.7080078125 9329.58984375 -2952.61865234375
15821.197265625 9329.58984375 -2976.81201171875
16016.6865234375 9329.58984375 -3007.779052734375
16212.1767578125 9329.58984375 -3031.380126953125
16407.666015625 9329.58984375 -3042.285888671875
16603.15625 9329.58984375 -3050.7578125
16798.64453125 9329.58984375 -3044.053955078125
16994.134765625 9329.58984375 -3022.98779296875
17189.623046875 9329.58984375 -2996.88671875
17385.11328125 9329.58984375 -2993.78857421875
19340.009765625 9329.58984375 -2722.028564453125
15039.2392578125 9469.3310546875 -3011.65283203125
15234.728515625 9469.3310546875 -3005.182861328125
15430.2177734375 9469.3310546875 -2979.064453125
15625.7080078125 9469.3310546875 -2988.627685546875
15821.197265625 9469.3310546875 -3001.35546875
16016.6865234375 9469.3310546875 -3008.4873046875
16212.1767578125 9469.3310546875 -3027.590087890625
16407.666015625 9469.3310546875 -3044.123779296875
16603.15625 9469.3310546875 -3050.141845703125
16798.64453125 9469.3310546875 -3029.291259765625
16994.134765625 9469.3310546875 -3013.0146484375
17189.623046875 9469.3310546875 -2981.26171875
17385.11328125 9469.3310546875 -2977.02734375
17580.603515625 9469.3310546875 -2958.021728515625
19340.009765625 9469.3310546875 -2746.255126953125
15039.2392578125 9609.0732421875 -3061.57861328125
15234.728515625 9609.0732421875 -3061.12060546875
15430.2177734375 9609.0732421875 -3038.979248046875
15625.7080078125 9609.0732421875 -3038.958984375
15821.197265625 9609.0732421875 -3017.45068359375
16016.6865234375 9609.0732421875 -3007.204833984375
16212.1767578125 9609.0732421875 -3013.1005859375
16407.666015625 9609.0732421875 -3023.04150390625
16603.15625 9609.0732421875 -3029.96728515625
16798.64453125 9609.0732421875 -3017.982177734375
16994.134765625 9609.0732421875 -2999.16650390625
17189.623046875 9609.0732421875 -2974.466552734375
17385.11328125 9609.0732421875 -2960.499755859375
17580.603515625 9609.0732421875 -2956.276123046875
17776.091796875 9609.0732421875 -2939.5732421875
17971.58203125 9609.0732421875 -2915.045166015625
19340.009765625 9609.0732421875 -2762.6435546875
15039.2392578125 9748.814453125 -3126.88623046875
15234.728515625 9748.814453125 -3122.247802734375
15430.2177734375 9748.814453125 -3094.003662109375
15625.7080078125 9748.814453125 -3077.16943359375
15821.197265625 9748.814453125 -3034.060546875
16016.6865234375 9748.814453125 -3004.32861328125
16212.1767578125 9748.814453125 -3000.540283203125
16407.666015625 9748.814453125 -2997.591064453125
16603.15625 9748.814453125 -3004.799560546875
16798.64453125 9748.814453125 -3004.14306640625
16994.134765625 9748.814453125 -2986.138916015625
17189.623046875 9748.814453125 -2974.316162109375
17385.11328125 9748.814453125 -2954.206787109375
17580.603515625 9748.814453125 -2956.50048828125
17776.091796875 9748.814453125 -2942.565185546875
17971.58203125 9748.814453125 -2913.06201171875
18167.072265625 9748.814453125 -2888.887939453125
18949.029296875 9748.814453125 -2797.15625
19144.51953125 9748.814453125 -2784.08837890625
19340.009765625 9748.814453125 -2772.806884765625
15039.2392578125 9888.556640625 -3191.7685546875
15234.728515625 9888.556640625 -3191.0146484375
15430.2177734375 9888.556640625 -3143.9892578125
15625.7080078125 9888.556640625 -3103.55126953125
15821.197265625 9888.556640625 -3047.86083984375
16016.6865234375 9888.556640625 -3001.14453125
16212.1767578125 9888.556640625 -2999.131591796875
16407.666015625 9888.556640625 -2984.782470703125
16603.15625 9888.556640625 -2982.30322265625
16798.64453125 9888.556640625 -2992.455810546875
16994.134765625 9888.556640625 -2975.834716796875
17189.623046875 9888.556640625 -2962.97607421875
17385.11328125 9888.556640625 -2953.94921875
17580.603515625 9888.556640625 -2952.5947265625
17776.091796875 9888.556640625 -2946.10009765625
17971.58203125 9888.556640625 -2909.440673828125
18167.072265625 9888.556640625 -2902.6962890625
18362.560546875 9888.556640625 -2892.409423828125
18949.029296875 9888.556640625 -2803.139404296875
19144.51953125 9888.556640625 -2806.900146484375
19340.009765625 9888.556640625 -2796.12353515625
15039.2392578125 10028.2978515625 -3232.22265625
15234.728515625 10028.2978515625 -3223.013671875
15430.2177734375 10028.2978515625 -3178.287109375
15625.7080078125 10028.2978515625 -3125.740478515625
15821.197265625 10028.2978515625 -3061.5458984375
16016.6865234375 10028.2978515625 -3006.85546875
16212.1767578125 10028.2978515625 -2995.744140625
16407.666015625 10028.2978515625 -2977.535888671875
16603.15625 10028.2978515625 -2956.404296875
16798.64453125 10028.2978515625 -2970.62109375
16994.134765625 10028.2978515625 -2967.02978515625
17189.623046875 10028.2978515625 -2975.555908203125
17385.11328125 10028.2978515625 -2973.393798828125
17580.603515625 10028.2978515625 -2962.21630859375
17776.091796875 10028.2978515625 -2953.16259765625
17971.58203125 10028.2978515625 -2927.3603515625
18167.072265625 10028.2978515625 -2907.361572265625
18362.560546875 10028.2978515625 -2908.118408203125
18558.05078125 10028.2978515625 -2885.10205078125
18753.541015625 10028.2978515625 -2830.668701171875
18949.029296875 10028.2978515625 -2785.542236328125
19144.51953125 10028.2978515625 -2826.310546875
19340.009765625 10028.2978515625 -2816.77099609375
14843.75 10168.0400390625 -3226.748046875
15039.2392578125 10168.0400390625 -3223.73876953125
15234.728515625 10168.0400390625 -3228.457763671875
15430.2177734375 10168.0400390625 -3201.6025390625
15625.7080078125 10168.0400390625 -3146.128662109375
15821.197265625 10168.0400390625 -3074.81494140625
16016.6865234375 10168.0400390625 -3020.107421875
16212.1767578125 10168.0400390625 -2983.122314453125
16407.666015625 10168.0400390625 -2960.250244140625
16603.15625 10168.0400390625 -2937.80712890625
16798.64453125 10168.0400390625 -2940.668212890625
16994.134765625 10168.0400390625 -2958.712158203125
17189.623046875 10168.0400390625 -2977.858154296875
17385.11328125 10168.0400390625 -2985.94580078125
17580.603515625 10168.0400390625 -2988.166748046875
17776.091796875 10168.0400390625 -2964.77294921875
17971.58203125 10168.0400390625 -2948.3515625
18167.072265625 10168.0400390625 -2930.199462890625
18362.560546875 10168.0400390625 -2920.9248046875
18558.05078125 10168.0400390625 -2903.23486328125
18753.541015625 10168.0400390625 -2848.735595703125
18949.029296875 10168.0400390625 -2785.17529296875
19144.51953125 10168.0400390625 -2812.373291015625
19340.009765625 10168.0400390625 -2818.93896484375
14843.75 10307.7822265625 -3215.069091796875
15039.2392578125 10307.7822265625 -3220.3603515625
15234.728515625 10307.7822265625 -3231.32275390625
15430.2177734375 10307.7822265625 -3212.388916015625
15625.7080078125 10307.7822265625 -3153.3486328125
15821.197265625 10307.7822265625 -3094.80810546875
16016.6865234375 10307.7822265625 -3041.772705078125
16212.1767578125 10307.7822265625 -2991.420654296875
16407.666015625 10307.7822265625 -2954.12841796875
16603.15625 10307.7822265625 -2939.277099609375
16798.64453125 10307.7822265625 -2923.06640625
16994.134765625 10307.7822265625 -2947.98681640625
17189.623046875 10307.7822265625 -2975.32568359375
17385.11328125 10307.7822265625 -2991.631591796875
17580.603515625 10307.7822265625 -2998.219970703125
17776.091796875 10307.7822265625 -2990.03466796875
17971.58203125 10307.7822265625 -2971.0048828125
18167.072265625 10307.7822265625 -2953.72607421875
18362.560546875 10307.7822265625 -2941.025390625
18558.05078125 10307.7822265625 -2920.58056640625
18753.541015625 10307.7822265625 -2870.319580078125
18949.029296875 10307.7822265625 -2807.009033203125
19144.51953125 10307.7822265625 -2807.01806640625
19340.009765625 10307.7822265625 -2820.469970703125
14648.259765625 10447.5234375 -3201.6298828125
14843.75 10447.5234375 -3205.24853515625
15039.2392578125 10447.5234375 -3221.775146484375
15234.728515625 10447.5234375 -3239.84912109375
15430.2177734375 10447.5234375 -3219.120849609375
15625.7080078125 10447.5234375 -3171.46630859375
15821.197265625 10447.5234375 -3115.781494140625
16016.6865234375 10447.5234375 -3059.945068359375
16212.1767578125 10447.5234375 -2993.956298828125
16407.666015625 10447.5234375 -2952.7099609375
16603.15625 10447.5234375 -2943.273193359375
16798.64453125 10447.5234375 -2922.226806640625
16994.134765625 10447.5234375 -2934.71728515625
17189.623046875 10447.5234375 -2964.24072265625
17385.11328125 10447.5234375 -2986.7734375
17580.603515625 10447.5234375 -3002.984375
17776.091796875 10447.5234375 -3002.390869140625
17971.58203125 10447.5234375 -2986.816650390625
18167.072265625 10447.5234375 -2964.804443359375
18362.560546875 10447.5234375 -2947.912109375
18558.05078125 10447.5234375 -2929.6552734375
18753.541015625 10447.5234375 -2893.72900390625
18949.029296875 10447.5234375 -2855.91748046875
19144.51953125 10447.5234375 -2839.065673828125
19340.009765625 10447.5234375 -2836.74755859375
9761.021484375 10587.265625 -3379.1181640625
9956.5107421875 10587.265625 -3365.630615234375
14648.259765625 10587.265625 -3196.586181640625
14843.75 10587.265625 -3205.306396484375
15039.2392578125 10587.265625 -3222.703369140625
15234.728515625 10587.265625 -3240.70556640625
15430.2177734375 10587.265625 -3224.873046875
15625.7080078125 10587.265625 -3178.4814453125
15821.197265625 10587.265625 -3128.677490234375
16016.6865234375 10587.265625 -3069.118896484375
16212.1767578125 10587.265625 -3006.109619140625
16407.666015625 10587.265625 -2956.716796875
16603.15625 10587.265625 -2944.5634765625
16798.64453125 10587.265625 -2927.92626953125
16994.134765625 10587.265625 -2926.72607421875
17189.623046875 10587.265625 -2942.830078125
17385.11328125 10587.265625 -2976.745361328125
17580.603515625 10587.265625 -3003.174072265625
17776.091796875 10587.265625 -3014.023193359375
17971.58203125 10587.265625 -2996.75048828125
18167.072265625 10587.265625 -2975.435791015625
18362.560546875 10587.265625 -2956.758056640625
18558.05078125 10587.265625 -2934.92919921875
18753.541015625 10587.265625 -2909.337158203125
18949.029296875 10587.265625 -2884.362548828125
19144.51953125 10587.265625 -2866.263916015625
19340.009765625 10587.265625 -2856.25048828125
9761.021484375 10727.0068359375 -3386.495361328125
9956.5107421875 10727.0068359375 -3372.676025390625
10152.0009765625 10727.0068359375 -3349.173583984375
10347.490234375 10727.0068359375 -3317.906982421875
14452.7705078125 10727.0068359375 -3192.70556640625
14648.259765625 10727.0068359375 -3201.0205078125
14843.75 10727.0068359375 -3210.375
15039.2392578125 10727.0068359375 -3225.42138671875
15234.728515625 10727.0068359375 -3233.84716796875
15430.2177734375 10727.0068359375 -3222.165283203125
15625.7080078125 10727.0068359375 -3183.153076171875
15821.197265625 10727.0068359375 -3130.958984375
16016.6865234375 10727.0068359375 -3080.694580078125
16212.1767578125 10727.0068359375 -3020.730224609375
16407.666015625 10727.0068359375 -2960.5849609375
16603.15625 10727.0068359375 -2942.814208984375
16798.64453125 10727.0068359375 -2931.786376953125
16994.134765625 10727.0068359375 -2928.486083984375
17189.623046875 10727.0068359375 -2925.441162109375
17385.11328125 10727.0068359375 -2962.800537109375
17580.603515625 10727.0068359375 -2990.71923828125
17776.091796875 10727.0068359375 -2998.243896484375
17971.58203125 10727.0068359375 -2990.86328125
18167.072265625 10727.0068359375 -2976.357177734375
18362.560546875 10727.0068359375 -2959.35791015625
18558.05078125 10727.0068359375 -2940.03759765625
18753.541015625 10727.0068359375 -2919.56884765625
18949.029296875 10727.0068359375 -2900.109375
19144.51953125 10727.0068359375 -2884.025390625
19340.009765625 10727.0068359375 -2872.760498046875
9761.021484375 10866.7490234375 -3396.473876953125
9956.5107421875 10866.7490234375 -3384.8359375
10152.0009765625 10866.7490234375 -3365.5615234375
10347.490234375 10866.7490234375 -3334.34814453125
10542.9794921875 10866.7490234375 -3286.4208984375
10738.4697265625 10866.7490234375 -3348.278076171875
14452.7705078125 10866.7490234375 -3195.9111328125
14648.259765625 10866.7490234375 -3201.498779296875
14843.75 10866.7490234375 -3221.234375
15039.2392578125 10866.7490234375 -3237.08203125
15234.728515625 10866.7490234375 -3239.169677734375
15430.2177734375 10866.7490234375 -3213.483642578125
15625.7080078125 10866.7490234375 -3174.56396484375
15821.197265625 10866.7490234375 -3131.74560546875
16016.6865234375 10866.7490234375 -3083.50244140625
16212.1767578125 10866.7490234375 -3032.184326171875
16407.666015625 10866.7490234375 -2973.63232421875
16603.15625 10866.7490234375 -2948.768310546875
16798.64453125 10866.7490234375 -2937.862060546875
16994.134765625 10866.7490234375 -2936.636962890625
17189.623046875 10866.7490234375 -2944.937255859375
17385.11328125 10866.7490234375 -2962.849853515625
17580.603515625 10866.7490234375 -2979.551513671875
17776.091796875 10866.7490234375 -2985.28369140625
17971.58203125 10866.7490234375 -2982.140625
18167.072265625 10866.7490234375 -2972.7998046875
18362.560546875 10866.7490234375 -2959.530517578125
18558.05078125 10866.7490234375 -2943.726318359375
18753.541015625 10866.7490234375 -2927.033935546875
18949.029296875 10866.7490234375 -2911.260009765625
19144.51953125 10866.7490234375 -2897.690673828125
19340.009765625 10866.7490234375 -2887.416015625
9761.021484375 11006.490234375 -3408.330078125
9956.5107421875 11006.490234375 -3400.568603515625
10152.0009765625 11006.490234375 -3391.93408203125
10347.490234375 11006.490234375 -3392.3369140625
10542.9794921875 11006.490234375 -3448.871337890625
10738.4697265625 11006.490234375 -3467.85498046875
10933.958984375 11006.490234375 -3480.7998046875
11129.4482421875 11006.490234375 -3461.3798828125
14452.7705078125 11006.490234375 -3186.78857421875
14648.259765625 11006.490234375 -3198.282470703125
14843.75 11006.490234375 -3217.2265625
15039.2392578125 11006.490234375 -3239.40673828125
15234.728515625 11006.490234375 -3234.36962890625
15430.2177734375 11006.490234375 -3207.9482421875
15625.7080078125 11006.490234375 -3161.940185546875
15821.197265625 11006.490234375 -3123.499755859375
16016.6865234375 11006.490234375 -3088.859619140625
16212.1767578125 11006.490234375 -3046.97900390625
16407.666015625 11006.490234375 -2999.19775390625
16603.15625 11006.490234375 -2972.461669921875
16798.64453125 11006.490234375 -2959.69580078125
16994.134765625 11006.490234375 -2956.164306640625
17189.623046875 11006.490234375 -2960.310302734375
17385.11328125 11006.490234375 -2968.974853515625
17580.603515625 11006.490234375 -2976.948486328125
17776.091796875 11006.490234375 -2979.814697265625
17971.58203125 11006.490234375 -2977.653076171875
18167.072265625 11006.490234375 -2971.00244140625
18362.560546875 11006.490234375 -2960.549560546875
18558.05078125 11006.490234375 -2947.69677734375
18753.541015625 11006.490234375 -2934.05126953125
18949.029296875 11006.490234375 -2921.104248046875
19144.51953125 11006.490234375 -2909.752197265625
19340.009765625 11006.490234375 -2900.76708984375
9761.021484375 11146.232421875 -3421.077880859375
9956.5107421875 11146.232421875 -3416.845458984375
10152.0009765625 11146.232421875 -3414.821044921875
10347.490234375 11146.232421875 -3421.497802734375
10542.9794921875 11146.232421875 -3452.64990234375
10738.4697265625 11146.232421875 -3425.961181640625
10933.958984375 11146.232421875 -3439.73046875
11129.4482421875 11146.232421875 -3451.141845703125
11324.9375 11146.232421875 -3443.497314453125
11520.427734375 11146.232421875 -3429.997802734375
14257.28125 11146.232421875 -3232.9970703125
14452.7705078125 11146.232421875 -3184.800048828125
14648.259765625 11146.232421875 -3181.46875
14843.75 11146.232421875 -3215.241455078125
15039.2392578125 11146.232421875 -3234.26318359375
15234.728515625 11146.232421875 -3229.53173828125
15430.2177734375 11146.232421875 -3201.612548828125
15625.7080078125 11146.232421875 -3157.90478515625
15821.197265625 11146.232421875 -3128.372802734375
16016.6865234375 11146.232421875 -3099.56494140625
16212.1767578125 11146.232421875 -3064.294189453125
16407.666015625 11146.232421875 -3029.615966796875
16603.15625 11146.232421875 -3003.740234375
16798.64453125 11146.232421875 -2987.203369140625
16994.134765625 11146.232421875 -2979.076904296875
17189.623046875 11146.232421875 -2977.4345703125
17385.11328125 11146.232421875 -2979.400634765625
17580.603515625 11146.232421875 -2981.6171875
17776.091796875 11146.232421875 -2981.4560546875
17971.58203125 11146.232421875 -2978.466552734375
18167.072265625 11146.232421875 -2972.439453125
18362.560546875 11146.232421875 -2963.476806640625
18558.05078125 11146.232421875 -2952.66357421875
18753.541015625 11146.232421875 -2941.2568359375
18949.029296875 11146.232421875 -2930.378662109375
19144.51953125 11146.232421875 -2920.6923828125
19340.009765625 11146.232421875 -2912.7666015625
9761.021484375 11285.9736328125 -3433.61962890625
9956.5107421875 11285.9736328125 -3431.9794921875
10152.0009765625 11285.9736328125 -3432.03955078125
10347.490234375 11285.9736328125 -3434.581787109375
10542.9794921875 11285.9736328125 -3436.85498046875
10738.4697265625 11285.9736328125 -3441.330078125
10933.958984375 11285.9736328125 -3458.161376953125
11129.4482421875 11285.9736328125 -3441.7314453125
11324.9375 11285.9736328125 -3434.376953125
11520.427734375 11285.9736328125 -3443.1533203125
11715.9169921875 11285.9736328125 -3458.500732421875
11911.40625 11285.9736328125 -3462.311279296875
14257.28125 11285.9736328125 -3236.055908203125
14452.7705078125 11285.9736328125 -3190.7333984375
14648.259765625 11285.9736328125 -3183.1845703125
14843.75 11285.9736328125 -3219.28759765625
15039.2392578125 11285.9736328125 -3229.9697265625
15234.728515625 11285.9736328125 -3224.17041015625
15430.2177734375 11285.9736328125 -3202.243408203125
15625.7080078125 11285.9736328125 -3172.51904296875
15821.197265625 11285.9736328125 -3143.2119140625
16016.6865234375 11285.9736328125 -3114.30126953125
16212.1767578125 11285.9736328125 -3084.077392578125
16407.666015625 11285.9736328125 -3055.4853515625
16603.15625 11285.9736328125 -3031.70849609375
16798.64453125 11285.9736328125 -3013.769775390625
16994.134765625 11285.9736328125 -3001.927490234375
17189.623046875 11285.9736328125 -2995.470947265625
17385.11328125 11285.9736328125 -2992.3193359375
17580.603515625 11285.9736328125 -2990.14501953125
17776.091796875 11285.9736328125 -2987.11376953125
17971.58203125 11285.9736328125 -2982.64990234375
18167.072265625 11285.9736328125 -2976.347412109375
18362.560546875 11285.9736328125 -2968.097412109375
18558.05078125 11285.9736328125 -2958.62109375
18753.541015625 11285.9736328125 -2948.78271484375
18949.029296875 11285.9736328125 -2939.36376953125
19144.51953125 11285.9736328125 -2930.869873046875
19340.009765625 11285.9736328125 -2923.75048828125
9761.021484375 11425.7158203125 -3444.94091796875
9956.5107421875 11425.7158203125 -3445.12744140625
10152.0009765625 11425.7158203125 -3445.354248046875
10347.490234375 11425.7158203125 -3445.249755859375
10542.9794921875 11425.7158203125 -3441.073486328125
10738.4697265625 11425.7158203125 -3422.811279296875
10933.958984375 11425.7158203125 -3464.08447265625
11129.4482421875 11425.7158203125 -3476.294921875
11324.9375 11425.7158203125 -3460.59033203125
11520.427734375 11425.7158203125 -3436.911376953125
11715.9169921875 11425.7158203125 -3437.553955078125
11911.40625 11425.7158203125 -3448.718994140625
12106.896484375 11425.7158203125 -3459.79296875
12302.3857421875 11425.7158203125 -3460.816162109375
14257.28125 11425.7158203125 -3247.934326171875
14452.7705078125 11425.7158203125 -3212.4130859375
14648.259765625 11425.7158203125 -3187.479736328125
14843.75 11425.7158203125 -3209.27978515625
15039.2392578125 11425.7158203125 -3218.62158203125
15234.728515625 11425.7158203125 -3215.208740234375
15430.2177734375 11425.7158203125 -3199.886962890625
15625.7080078125 11425.7158203125 -3178.051025390625
15821.197265625 11425.7158203125 -3153.318603515625
16016.6865234375 11425.7158203125 -3127.478515625
16212.1767578125 11425.7158203125 -3101.07421875
16407.666015625 11425.7158203125 -3075.98828125
16603.15625 11425.7158203125 -3054.026123046875
16798.64453125 11425.7158203125 -3035.89892578125
16994.134765625 11425.7158203125 -3022.086669921875
17189.623046875 11425.7158203125 -3012.414306640625
17385.11328125 11425.7158203125 -3005.552978515625
17580.603515625 11425.7158203125 -3000.0263671875
17776.091796875 11425.7158203125 -2994.626708984375
17971.58203125 11425.7158203125 -2988.78466796875
18167.072265625 11425.7158203125 -2982.022216796875
18362.560546875 11425.7158203125 -2974.105712890625
18558.05078125 11425.7158203125 -2965.477294921875
18753.541015625 11425.7158203125 -2956.695556640625
18949.029296875 11425.7158203125 -2948.281005859375
19144.51953125 11425.7158203125 -2940.62939453125
19340.009765625 11425.7158203125 -2934.109375
9761.021484375 11565.4580078125 -3454.383544921875
9956.5107421875 11565.4580078125 -3456.065185546875
10152.0009765625 11565.4580078125 -3457.2177734375
10347.490234375 11565.4580078125 -3456.90771484375
10542.9794921875 11565.4580078125 -3455.633056640625
10738.4697265625 11565.4580078125 -3482.009033203125
10933.958984375 11565.4580078125 -3461.782470703125
11129.4482421875 11565.4580078125 -3439.576416015625
11324.9375 11565.4580078125 -3442.436767578125
11520.427734375 11565.4580078125 -3445.79052734375
11715.9169921875 11565.4580078125 -3449.5458984375
11911.40625 11565.4580078125 -3455.531005859375
12106.896484375 11565.4580078125 -3447.916259765625
12302.3857421875 11565.4580078125 -3439.47607421875
12497.875 11565.4580078125 -3433.037841796875
12693.3642578125 11565.4580078125 -3416.3203125
14061.791015625 11565.4580078125 -3310.767333984375
14257.28125 11565.4580078125 -3265.343994140625
14452.7705078125 11565.4580078125 -3231.156005859375
14648.259765625 11565.4580078125 -3215.57373046875
14843.75 11565.4580078125 -3215.9306640625
15039.2392578125 11565.4580078125 -3217.025634765625
15234.728515625 11565.4580078125 -3211.646240234375
15430.2177734375 11565.4580078125 -3198.5302734375
15625.7080078125 11565.4580078125 -3180.6484375
15821.197265625 11565.4580078125 -3159.7578125
16016.6865234375 11565.4580078125 -3137.0732421875
16212.1767578125 11565.4580078125 -3113.778076171875
16407.666015625 11565.4580078125 -3091.318359375
16603.15625 11565.4580078125 -3070.881103515625
16798.64453125 11565.4580078125 -3053.0537109375
16994.134765625 11565.4580078125 -3038.354736328125
17189.623046875 11565.4580078125 -3026.8466796875
17385.11328125 11565.4580078125 -3017.71484375
17580.603515625 11565.4580078125 -3010.044189453125
17776.091796875 11565.4580078125 -3003.03955078125
17971.58203125 11565.4580078125 -2996.185791015625
18167.072265625 11565.4580078125 -2989.00634765625
18362.560546875 11565.4580078125 -2981.222412109375
18558.05078125 11565.4580078125 -2973.10107421875
18753.541015625 11565.4580078125 -2965.002197265625
18949.029296875 11565.4580078125 -2957.27294921875
19144.51953125 11565.4580078125 -2950.21826171875
19340.009765625 11565.4580078125 -2944.134521484375
9761.021484375 11705.19921875 -3462.091552734375
9956.5107421875 11705.19921875 -3465.085205078125
10152.0009765625 11705.19921875 -3467.530517578125
10347.490234375 11705.19921875 -3468.121826171875
10542.9794921875 11705.19921875 -3462.73193359375
10738.4697265625 11705.19921875 -3441.501708984375
10933.958984375 11705.19921875 -3467.993896484375
11129.4482421875 11705.19921875 -3476.358154296875
11324.9375 11705.19921875 -3471.274169921875
11520.427734375 11705.19921875 -3463.71484375
11715.9169921875 11705.19921875 -3459.4423828125
11911.40625 11705.19921875 -3459.360595703125
12106.896484375 11705.19921875 -3444.05859375
12302.3857421875 11705.19921875 -3428.01953125
12497.875 11705.19921875 -3424.770751953125
12693.3642578125 11705.19921875 -3406.37158203125
12888.8544921875 11705.19921875 -3382.225341796875
13084.34375 11705.19921875 -3373.603759765625
14061.791015625 11705.19921875 -3314.884765625
14257.28125 11705.19921875 -3281.508544921875
14452.7705078125 11705.19921875 -3253.786865234375
14648.259765625 11705.19921875 -3236.36474609375
14843.75 11705.19921875 -3227.605712890625
15039.2392578125 11705.19921875 -3221.110107421875
15234.728515625 11705.19921875 -3212.2431640625
15430.2177734375 11705.19921875 -3199.251220703125
15625.7080078125 11705.19921875 -3183.082275390625
15821.197265625 11705.19921875 -3164.476318359375
