M_Brent_2003 = [427073.312500 6745279.500000 -2876.715088 ;
427567.500000 6740193.000000 -3001.916992 ;
426261.281250 6735106.500000 -3183.569092 ;
429630.656250 6736599.000000 -2795.794922 ;
429618.406250 6741413.000000 -2724.439941 ;
427080.875000 6739340.500000 -3049.724121 ;
429401.812500 6736416.500000 -2816.245117 ;
427219.093750 6747777.500000 -2817.188965 ;
427741.437500 6739539.500000 -2984.801025 ;
426180.562500 6736633.500000 -3142.431885 ;
429848.000000 6746134.500000 -2689.793945 ;
430623.687500 6738354.000000 -2710.591064 ;
427047.812500 6742254.500000 -3025.843994 ;
428928.718750 6738014.000000 -2892.864990 ;
427590.968750 6736817.000000 -3012.687012 ;
427257.375000 6744213.000000 -2912.545898 ;
428721.687500 6741582.000000 -2820.566895 ;
426714.312500 6735247.000000 -3166.095947 ;
428736.562500 6740494.000000 -2847.907959 ;
429829.531250 6744347.000000 -2827.747070 ;
427710.406250 6747954.500000 -2767.424072 ;
426003.500000 6740738.500000 -3114.465088 ;
427893.750000 6737848.000000 -2988.351074 ;
426859.281250 6744909.000000 -2912.306885 ;
430648.656250 6739554.000000 -2673.136963 ;
429431.218750 6735128.000000 -2821.292969 ;
428582.906250 6743923.000000 -2789.253906 ;
430778.562500 6745790.000000 -2715.441895 ;
427874.750000 6739636.500000 -2974.365967 ;
430940.000000 6744536.500000 -2732.521973 ;
428576.187500 6734595.500000 -2953.475098 ;
426016.500000 6741363.000000 -3115.111084 ;
427549.812500 6741144.000000 -2965.670898 ;
429767.562500 6744973.500000 -2797.683105 ;
431615.156250 6740034.000000 -2702.935059 ;
426518.218750 6742040.500000 -3085.332031 ;
431305.031250 6742810.500000 -2653.990234 ;
427569.312500 6742081.000000 -2982.969971 ;
431794.937500 6740191.000000 -2699.610840 ;
429571.531250 6739163.500000 -2815.414062 ;
426362.781250 6740881.000000 -3084.000000 ;
428570.468750 6736121.000000 -2944.818115 ;
429233.343750 6734632.000000 -2884.895020 ;
430274.750000 6744113.000000 -2771.747070 ;
428579.843750 6734770.500000 -2950.409912 ;
427909.343750 6743099.500000 -2894.053955 ;
430960.343750 6736509.000000 -2692.735107 ;
426017.812500 6742326.000000 -3073.583008 ;
427913.031250 6738773.000000 -2989.694092 ;
426518.250000 6737539.500000 -3111.726074 ;
430925.718750 6734847.000000 -2714.568115 ;
429048.187500 6745551.000000 -2654.531006 ;
429677.531250 6737948.500000 -2828.044922 ;
430262.312500 6736311.000000 -2749.645020 ;
427364.187500 6734933.500000 -3079.895020 ;
427763.531250 6745103.000000 -2794.830078 ;
431442.531250 6740750.000000 -2708.714111 ;
427541.156250 6747933.000000 -2781.393066 ;
428407.968750 6740926.000000 -2853.779053 ;
428772.718750 6744932.000000 -2722.677002 ;
426686.656250 6744725.000000 -2928.094971 ;
431100.375000 6744133.000000 -2697.310059 ;
426191.468750 6744360.500000 -2992.947021 ;
430773.125000 6738326.000000 -2692.662109 ;
426021.718750 6738012.500000 -3151.260986 ;
429606.656250 6745352.000000 -2766.964111 ;
430786.406250 6737163.000000 -2679.867920 ;
426164.937500 6734983.500000 -3200.459961 ;
429135.468750 6734434.000000 -2898.361084 ;
427900.281250 6738160.500000 -2985.602051 ;
426217.250000 6739296.000000 -3138.685059 ;
427042.312500 6746493.000000 -2853.597900 ;
427998.937500 6740196.500000 -2961.331055 ;
426854.843750 6746497.000000 -2888.697021 ;
428382.468750 6737000.500000 -2963.467041 ;
426231.875000 6734594.500000 -3200.375000 ;
426199.312500 6735733.000000 -3179.724121 ;
429244.812500 6736982.500000 -2873.956055 ;
430260.437500 6742525.000000 -2771.541992 ;
428043.218750 6737820.000000 -2972.480957 ;
427881.281250 6735448.000000 -3029.291992 ;
428819.093750 6739054.500000 -2895.552002 ;
427162.625000 6741464.500000 -3014.435059 ;
427556.281250 6745957.500000 -2805.429932 ;
426527.875000 6742503.000000 -3052.762939 ;
429303.625000 6738006.500000 -2855.364014 ;
426535.937500 6740189.500000 -3075.824951 ;
427046.281250 6737678.500000 -3062.218018 ;
426874.937500 6741158.000000 -3049.825928 ;
431609.156250 6740646.500000 -2689.641113 ;
431123.875000 6735355.500000 -2715.311035 ;
429411.156250 6741367.500000 -2746.948975 ;
429750.906250 6741473.000000 -2694.141113 ;
427200.906250 6742401.500000 -3009.622070 ;
426689.562500 6737661.000000 -3094.696045 ;
426343.250000 6744444.500000 -2978.441895 ;
430936.125000 6735346.500000 -2687.925049 ;
429040.375000 6740675.000000 -2826.422119 ;
430309.937500 6740398.500000 -2693.698975 ;
430960.093750 6734696.000000 -2725.520996 ;
428221.812500 6740092.000000 -2930.757080 ;
428071.062500 6737357.000000 -2973.174072 ;
430902.281250 6738223.000000 -2686.135986 ;
428058.312500 6734944.000000 -2995.190918 ;
428233.531250 6736153.000000 -2994.133057 ;
427896.312500 6746975.500000 -2744.969971 ;
426196.156250 6741884.500000 -3109.474121 ;
425910.281250 6739865.000000 -3110.173096 ;
429440.093750 6735553.000000 -2819.511963 ;
427615.125000 6746981.500000 -2768.173096 ;
427219.375000 6745989.500000 -2851.694092 ;
426920.250000 6736130.500000 -3102.975098 ;
428622.500000 6743122.000000 -2826.972900 ;
426000.875000 6741513.500000 -3112.938965 ;
426007.406250 6740926.000000 -3105.107910 ;
429070.843750 6741237.000000 -2798.321045 ;
426557.781250 6747541.000000 -2928.231934 ;
427313.125000 6741486.500000 -3003.124023 ;
429450.218750 6740541.500000 -2792.324951 ;
427873.125000 6746763.500000 -2745.247070 ;
427193.875000 6744764.500000 -2863.790039 ;
426702.312500 6740974.000000 -3049.102051 ;
426934.312500 6736805.500000 -3085.118896 ;
428551.437500 6738810.000000 -2921.303955 ;
427900.281250 6736360.000000 -2964.177002 ;
430947.062500 6738572.500000 -2671.504883 ;
427431.625000 6736370.000000 -3006.777100 ;
430458.093750 6736707.000000 -2730.139893 ;
430087.062500 6741403.500000 -2697.425049 ;
426861.375000 6746809.500000 -2877.066895 ;
427232.625000 6746627.000000 -2823.732910 ;
427382.406250 6735808.500000 -3095.008057 ;
428741.250000 6738018.000000 -2909.669922 ;
427545.875000 6740956.500000 -2962.294922 ;
430587.500000 6736617.000000 -2717.406982 ;
429853.000000 6737370.000000 -2824.111084 ;
426155.000000 6747112.000000 -2979.468994 ;
427240.250000 6737987.000000 -3057.135010 ;
431303.468750 6744879.000000 -2708.176025 ;
426215.375000 6747310.500000 -2972.024902 ;
428356.906250 6743877.500000 -2820.460938 ;
426358.875000 6744294.500000 -2969.837891 ;
429286.468750 6734481.000000 -2880.029053 ;
427767.750000 6736300.500000 -3020.750000 ;
428563.093750 6747474.500000 -2656.062988 ;
426864.750000 6746972.000000 -2876.489990 ;
430136.812500 6737489.000000 -2785.815918 ;
427712.781250 6742666.000000 -2922.566895 ;
428910.218750 6738927.500000 -2887.832031 ;
426376.062500 6746019.500000 -2969.665039 ;
425973.312500 6735687.500000 -3184.034912 ;
427930.187500 6744099.000000 -2872.051025 ;
428046.031250 6744259.000000 -2858.426025 ;
427223.312500 6737174.500000 -3045.133057 ;
429570.500000 6741814.500000 -2700.066895 ;
430256.843750 6738749.500000 -2745.304932 ;
426008.968750 6737400.000000 -3139.959961 ;
426867.906250 6741720.500000 -3063.340088 ;
431399.812500 6740501.000000 -2701.770996 ;
427243.875000 6738162.000000 -3059.398926 ;
428523.812500 6745587.000000 -2698.376953 ;
428595.437500 6740021.500000 -2887.592041 ;
428667.031250 6742558.500000 -2826.827881 ;
428618.875000 6736645.500000 -2938.221924 ;
425928.000000 6737114.000000 -3141.396973 ;
428933.625000 6744553.500000 -2696.302002 ;
426182.093750 6740309.500000 -3098.404053 ;
427214.718750 6739463.000000 -3045.556885 ;
431436.531250 6739562.500000 -2716.500000 ;
429747.531250 6745811.500000 -2719.659912 ;
426173.781250 6740810.000000 -3099.550049 ;
426392.968750 6746832.000000 -2947.123047 ;
429930.312500 6743782.500000 -2800.437988 ;
426415.375000 6743405.500000 -3011.895020 ;
430595.843750 6735216.500000 -2713.675049 ;
428259.281250 6743692.000000 -2846.012939 ;
427267.562500 6743800.500000 -2925.168945 ;
430954.625000 6737134.500000 -2666.428955 ;
429511.656250 6738990.000000 -2828.131104 ;
429098.218750 6737148.000000 -2892.918945 ;
428251.500000 6738816.000000 -2949.681885 ;
426516.687500 6739265.000000 -3103.116943 ;
429335.937500 6736855.500000 -2862.031982 ;
429620.187500 6745101.500000 -2804.126953 ;
427882.000000 6746288.000000 -2749.204102 ;
430285.718750 6742837.000000 -2781.138916 ;
427916.125000 6738923.000000 -2970.729980 ;
427396.468750 6737383.500000 -3027.560059 ;
427717.187500 6745579.000000 -2794.580078 ;
429738.406250 6744474.000000 -2837.253906 ;
430618.437500 6742605.000000 -2730.844971 ;
429491.093750 6738002.500000 -2840.905029 ;
426686.187500 6736598.000000 -3108.843018 ;
430143.562500 6737814.000000 -2783.327881 ;
426558.093750 6736751.000000 -3114.532959 ;
427110.031250 6740740.500000 -3008.962891 ;
426019.375000 6743301.000000 -3019.167969 ;
428390.031250 6737363.000000 -2948.676025 ;
426033.968750 6736799.000000 -3133.613037 ;
427268.093750 6739324.000000 -3028.667969 ;
429116.156250 6738010.500000 -2874.110107 ;
428918.843750 6735739.000000 -2897.552002 ;
429212.781250 6736345.500000 -2826.775879 ;
428720.156250 6738806.500000 -2907.269043 ;
430306.562500 6736635.000000 -2743.860107 ;
428901.906250 6734926.500000 -2929.330078 ;
428725.593750 6746270.500000 -2640.968018 ;
427536.250000 6741394.000000 -2974.995117 ;
426185.750000 6741384.500000 -3104.519043 ;
429746.531250 6737659.500000 -2829.569092 ;
428396.781250 6737687.500000 -2942.393066 ;
427580.281250 6736304.500000 -3055.389893 ;
427706.250000 6745954.000000 -2784.496094 ;
429761.125000 6735659.000000 -2818.565918 ;
430279.218750 6738023.500000 -2774.462891 ;
427768.031250 6734512.500000 -3039.333984 ;
428910.500000 6737139.500000 -2909.268066 ;
429258.093750 6735819.500000 -2847.263916 ;
427715.906250 6742815.500000 -2916.394043 ;
426005.843750 6737250.000000 -3136.186035 ;
429229.687500 6738958.000000 -2848.460938 ;
431122.250000 6744282.500000 -2698.035889 ;
427949.718750 6740535.500000 -2932.885986 ;
426007.375000 6741826.000000 -3104.054932 ;
426519.812500 6739415.000000 -3105.370117 ;
430785.656250 6735325.000000 -2700.394043 ;
429006.031250 6739925.500000 -2828.562012 ;
430424.750000 6738708.500000 -2723.251953 ;
427316.718750 6747963.000000 -2781.955078 ;
428851.093750 6745993.000000 -2632.173096 ;
430090.968750 6737090.000000 -2771.677979 ;
427713.031250 6743578.500000 -2887.854004 ;
426696.062500 6738873.500000 -3092.311035 ;
427418.343750 6737533.000000 -3028.622070 ;
427780.218750 6738701.000000 -3018.843994 ;
428402.500000 6742464.000000 -2862.618896 ;
429614.500000 6741226.000000 -2730.472900 ;
429839.156250 6743909.500000 -2809.422119 ;
428053.093750 6739195.500000 -2963.145020 ;
428555.093750 6737184.500000 -2941.743896 ;
426005.343750 6735424.500000 -3171.573975 ;
429602.000000 6738825.500000 -2828.260010 ;
429082.875000 6734610.000000 -2898.137939 ;
428436.093750 6741375.500000 -2858.579102 ;
431115.781250 6734968.000000 -2725.894043 ;
430278.687500 6738899.000000 -2737.768066 ;
430105.562500 6735989.000000 -2761.141113 ;
427928.125000 6737697.500000 -2985.927979 ;
428916.750000 6734738.500000 -2914.398926 ;
428432.406250 6745701.500000 -2684.423096 ;
427384.968750 6744935.500000 -2836.612061 ;
430086.812500 6739590.500000 -2747.989014 ;
428919.562500 6742078.000000 -2790.852051 ;
428215.281250 6744280.500000 -2830.039062 ;
427369.625000 6739697.000000 -3016.204102 ;
428063.531250 6736994.500000 -2973.754883 ;
426763.718750 6746624.000000 -2892.562012 ;
430258.906250 6736148.500000 -2748.077881 ;
427388.625000 6745110.500000 -2838.600098 ;
429260.656250 6742246.000000 -2738.895996 ;
426514.312500 6746354.000000 -2953.427002 ;
426020.156250 6739737.500000 -3122.904053 ;
430612.500000 6737816.500000 -2733.500000 ;
430379.968750 6740159.500000 -2706.072998 ;
426258.406250 6735869.500000 -3154.543945 ;
428553.500000 6739810.000000 -2892.974121 ;
426720.031250 6740023.000000 -3055.316895 ;
428586.593750 6740497.000000 -2873.487061 ;
428385.031250 6746127.500000 -2683.939941 ;
426850.750000 6734594.000000 -3139.596924 ;
426010.500000 6741976.000000 -3106.055908 ;
428218.406250 6744430.500000 -2826.294922 ;
431286.531250 6744066.500000 -2685.809082 ;
429554.906250 6735663.000000 -2836.207031 ;
430966.593750 6736809.000000 -2674.563965 ;
430324.281250 6737485.000000 -2751.436035 ;
429155.468750 6739897.500000 -2813.793945 ;
426021.968750 6742526.000000 -3069.922119 ;
428566.031250 6736809.000000 -2944.845947 ;
426872.562500 6747347.000000 -2876.622070 ;
427094.437500 6739990.500000 -3059.406006 ;
428050.187500 6746259.500000 -2737.922119 ;
429275.000000 6736631.500000 -2869.924072 ;
427203.812500 6736237.000000 -3073.337891 ;
429661.375000 6738974.000000 -2814.672119 ;
428215.843750 6738004.000000 -2954.654053 ;
431606.031250 6740496.500000 -2690.017090 ;
426219.625000 6738508.500000 -3135.187988 ;
429820.687500 6744822.500000 -2802.058105 ;
431445.656250 6740000.000000 -2710.100098 ;
431504.750000 6740136.000000 -2708.833984 ;
429585.343750 6740726.500000 -2750.947998 ;
430595.031250 6741480.500000 -2751.009033 ;
427485.718750 6745271.000000 -2828.434082 ;
428579.781250 6743773.000000 -2798.708008 ;
428421.000000 6736149.500000 -2970.062012 ;
428246.250000 6743067.000000 -2874.439941 ;
426869.218750 6736381.500000 -3055.226074 ;
429918.375000 6736906.000000 -2769.923096 ;
429061.750000 6736298.500000 -2860.552002 ;
428285.562500 6747655.000000 -2680.511963 ;
426345.093750 6742731.500000 -3050.718018 ;
429445.281250 6735803.000000 -2811.375000 ;
426878.812500 6747647.000000 -2876.489990 ;
426026.375000 6742738.500000 -3068.257080 ;
430973.593750 6743448.000000 -2730.049072 ;
430426.812500 6744209.500000 -2740.678955 ;
426520.312500 6743941.000000 -2948.550049 ;
430283.125000 6738211.000000 -2771.507080 ;
429779.812500 6744660.500000 -2818.058105 ;
431238.375000 6742655.000000 -2673.059082 ;
428059.562500 6745809.500000 -2732.430908 ;
429348.937500 6735680.000000 -2817.860107 ;
426398.156250 6747982.000000 -2936.958008 ;
427889.562500 6743950.000000 -2875.533936 ;
426430.218750 6744118.000000 -2957.111084 ;
428037.218750 6735732.000000 -3014.803955 ;
428064.531250 6741545.500000 -2930.802979 ;
427700.843750 6734889.000000 -3041.601074 ;
429266.156250 6736206.500000 -2841.705078 ;
429161.718750 6739297.000000 -2853.743896 ;
426511.500000 6734513.500000 -3180.400879 ;
429100.250000 6743549.500000 -2736.175049 ;
430449.468750 6744396.500000 -2742.448975 ;
427551.625000 6743932.000000 -2905.593994 ;
426349.031250 6735717.500000 -3167.324951 ;
428401.468750 6738813.000000 -2935.987061 ;
427020.781250 6734653.000000 -3128.571045 ;
428726.406250 6737306.000000 -2928.663086 ;
428068.187500 6741720.500000 -2927.527100 ;
426369.281250 6745694.500000 -2962.620117 ;
428215.031250 6741567.500000 -2909.583008 ;
425831.406250 6735178.000000 -3217.981934 ;
430943.125000 6744686.500000 -2737.689941 ;
427587.843750 6736667.000000 -3012.800049 ;
428726.625000 6743620.000000 -2788.071045 ;
430078.500000 6734689.500000 -2766.427979 ;
426358.625000 6737980.000000 -3136.853027 ;
429432.250000 6736978.500000 -2849.462891 ;
430838.750000 6735173.500000 -2702.102051 ;
428226.000000 6735791.000000 -2998.822998 ;
428559.500000 6740997.500000 -2833.320068 ;
429072.406250 6743112.500000 -2747.083984 ;
429910.500000 6745533.000000 -2739.927002 ;
430208.125000 6740913.500000 -2697.357910 ;
427024.406250 6737529.000000 -3072.272949 ;
427200.406250 6736074.500000 -3069.150879 ;
428392.343750 6742876.500000 -2865.101074 ;
428592.531250 6746186.000000 -2654.974121 ;
426039.656250 6745176.000000 -2997.718018 ;
426523.968750 6736914.000000 -3112.480957 ;
428107.500000 6743608.000000 -2861.552002 ;
431181.875000 6744444.000000 -2702.531006 ;
430119.875000 6736676.500000 -2753.343018 ;
427084.562500 6735014.500000 -3116.406006 ;
431631.031250 6740796.000000 -2692.918945 ;
429911.593750 6735680.500000 -2793.165039 ;
427709.375000 6742503.500000 -2931.428955 ;
426836.937500 6737532.500000 -3082.180908 ;
425973.562500 6739301.000000 -3154.781006 ;
431634.156250 6740946.000000 -2698.849121 ;
428224.937500 6740242.000000 -2927.001953 ;
427235.281250 6742250.500000 -3012.748047 ;
428385.625000 6734449.500000 -2977.971924 ;
429749.125000 6736884.500000 -2795.177002 ;
427151.937500 6747253.500000 -2827.382080 ;
430246.437500 6734648.500000 -2754.885010 ;
427103.812500 6740440.500000 -3013.825928 ;
429001.375000 6737000.000000 -2900.301025 ;
430252.656250 6737649.000000 -2759.739014 ;
430083.687500 6740341.000000 -2716.218018 ;
428137.187500 6740531.500000 -2927.489014 ;
426874.406250 6742933.500000 -3015.406006 ;
426017.593750 6735111.500000 -3213.202881 ;
427395.625000 6745448.000000 -2844.039062 ;
430945.250000 6735784.000000 -2676.805908 ;
428093.937500 6744758.500000 -2793.183105 ;
427904.125000 6747350.500000 -2755.131104 ;
429420.531250 6739117.000000 -2826.450928 ;
430695.562500 6738202.500000 -2717.895020 ;
427405.312500 6738708.500000 -3047.695068 ;
430934.281250 6744261.500000 -2718.669922 ;
429688.187500 6738461.000000 -2828.163086 ;
426178.500000 6734733.000000 -3205.959961 ;
429634.812500 6738599.500000 -2833.789062 ;
426217.500000 6742909.500000 -3054.076904 ;
428388.718750 6734599.500000 -2980.496094 ;
430432.312500 6737270.000000 -2731.705078 ;
430434.156250 6736457.500000 -2731.958984 ;
427032.968750 6741542.000000 -3032.667969 ;
429727.000000 6736722.500000 -2786.749023 ;
428563.906250 6740310.000000 -2877.895996 ;
428901.375000 6740303.000000 -2835.354980 ;
427558.906250 6742481.500000 -2954.681885 ;
430446.906250 6735269.500000 -2740.063965 ;
430927.500000 6742136.000000 -2693.698975 ;
427369.375000 6736083.500000 -3080.364014 ;
428052.812500 6740983.000000 -2926.264893 ;
428392.375000 6734774.500000 -2971.118896 ;
428286.656250 6736002.000000 -2987.361084 ;
425854.843750 6736303.000000 -3153.792969 ;
429122.687500 6738323.000000 -2877.583008 ;
427987.687500 6746861.000000 -2736.362061 ;
430596.593750 6742455.500000 -2739.319092 ;
426897.062500 6739519.500000 -3080.373047 ;
426853.625000 6736532.000000 -3101.898926 ;
429109.375000 6739486.000000 -2828.842041 ;
426521.343750 6745791.500000 -2947.748047 ;
430960.812500 6745536.500000 -2732.325928 ;
425985.531250 6741676.500000 -3109.200928 ;
429237.250000 6738420.500000 -2865.184082 ;
427543.812500 6739956.000000 -3009.385986 ;
427923.406250 6741073.500000 -2915.532959 ;
427196.781250 6735899.500000 -3091.374023 ;
429051.343750 6740300.000000 -2818.475098 ;
429745.500000 6734909.000000 -2839.511963 ;
429060.687500 6742550.000000 -2753.382080 ;
429188.031250 6737859.000000 -2864.989990 ;
427913.031250 6736072.500000 -3030.739990 ;
429354.156250 6735930.000000 -2816.132080 ;
430077.187500 6737327.500000 -2803.927979 ;
427762.250000 6740539.000000 -2947.739014 ;
429077.625000 6743362.500000 -2743.343018 ;
429567.343750 6746165.500000 -2687.535889 ;
426782.531250 6736721.000000 -3094.360107 ;
429765.000000 6740347.500000 -2761.068115 ;
426389.843750 6746682.000000 -2954.464111 ;
430459.875000 6744896.500000 -2733.575928 ;
429740.781250 6738285.000000 -2818.593994 ;
429584.062500 6736162.500000 -2801.622070 ;
426272.718750 6738357.000000 -3132.370117 ;
427396.468750 6735583.000000 -3102.850098 ;
429251.812500 6740020.500000 -2798.263916 ;
428746.218750 6735555.000000 -2922.426025 ;
430083.687500 6734939.500000 -2771.091064 ;
426731.218750 6740560.500000 -3056.239014 ;
431687.281250 6739895.000000 -2703.153076 ;
428718.593750 6741432.000000 -2820.566895 ;
430794.468750 6742051.500000 -2716.266113 ;
429447.093750 6740391.500000 -2793.879883 ;
430093.812500 6744429.000000 -2789.976074 ;
430276.375000 6735185.500000 -2752.714111 ;
426552.562500 6747291.000000 -2925.937988 ;
429794.406250 6739059.000000 -2799.997070 ;
431567.500000 6738647.000000 -2748.488037 ;
429400.750000 6740867.500000 -2772.572021 ;
430097.437500 6744604.000000 -2781.395996 ;
431653.156250 6738257.500000 -2752.343994 ;
431452.156250 6740312.500000 -2704.947998 ;
431136.375000 6735955.000000 -2702.285889 ;
427383.937500 6743085.000000 -2935.445068 ;
430592.968750 6735979.000000 -2708.712891 ;
426861.656250 6737819.500000 -3077.746094 ;
428634.718750 6747310.000000 -2639.732910 ;
427024.375000 6741129.500000 -3029.774902 ;
427874.968750 6745950.500000 -2761.904053 ;
426058.468750 6735273.500000 -3208.104980 ;
430112.093750 6736301.500000 -2760.590088 ;
426914.468750 6746658.500000 -2875.179932 ;
426852.531250 6741883.500000 -3051.860107 ;
428367.343750 6744377.500000 -2800.257080 ;
430607.000000 6742055.500000 -2742.197998 ;
431832.031250 6738741.500000 -2767.090088 ;
428649.312500 6745309.500000 -2699.726074 ;
427369.062500 6747774.000000 -2806.534912 ;
427063.437500 6738503.000000 -3073.326904 ;
426685.875000 6743787.500000 -2983.372070 ;
426051.156250 6739424.500000 -3138.764893 ;
427707.593750 6737014.500000 -2992.509033 ;
429627.031250 6735524.000000 -2804.496094 ;
427751.625000 6735525.500000 -3064.697021 ;
426648.906250 6747414.000000 -2916.659912 ;
426208.937500 6737996.000000 -3137.774902 ;
428250.156250 6743254.500000 -2868.561035 ;
427919.531250 6740886.000000 -2930.425049 ;
427254.562500 6738674.500000 -3063.735107 ;
427360.562500 6734758.500000 -3084.101074 ;
428275.187500 6738153.000000 -2944.919922 ;
431132.406250 6744770.000000 -2720.072021 ;
429125.781250 6742974.000000 -2734.593018 ;
426696.562500 6742499.500000 -3038.610107 ;
428732.375000 6742994.500000 -2810.770020 ;
427196.218750 6741276.000000 -3016.903076 ;
427581.000000 6747144.500000 -2774.258057 ;
427748.218750 6735363.000000 -3045.184082 ;
429807.125000 6745973.000000 -2693.597900 ;
427408.375000 6746960.500000 -2793.031006 ;
427418.312500 6739333.500000 -3018.724121 ;
426721.812500 6746412.500000 -2912.128906 ;
427196.187500 6745777.500000 -2858.364014 ;
426184.218750 6736808.500000 -3136.249023 ;
429402.312500 6740042.500000 -2786.066895 ;
426012.875000 6738487.500000 -3131.333008 ;
430035.750000 6746143.500000 -2665.596924 ;
428556.093750 6744436.000000 -2767.669922 ;
426384.906250 6746444.500000 -2968.083984 ;
427565.968750 6736517.000000 -3015.673096 ;
427058.250000 6739153.500000 -3048.944092 ;
430784.812500 6743389.500000 -2695.333984 ;
428217.656250 6735391.000000 -2992.176025 ;
430985.843750 6743135.000000 -2683.239014 ;
426579.156250 6738663.500000 -3104.876953 ;
430285.750000 6735635.500000 -2746.092041 ;
429089.093750 6737611.000000 -2887.892090 ;
426071.718750 6740412.000000 -3101.059082 ;
429616.312500 6739513.000000 -2786.822998 ;
427726.062500 6739702.000000 -2986.739014 ;
426178.218750 6737421.500000 -3137.504883 ;
429580.937500 6736913.000000 -2844.117920 ;
429910.531250 6741032.000000 -2684.889893 ;
425886.343750 6739615.500000 -3106.336914 ;
429997.718750 6744318.500000 -2810.729980 ;
426171.437500 6736196.000000 -3147.371094 ;
426698.375000 6745287.500000 -2926.197998 ;
425900.656250 6736702.000000 -3109.808105 ;
427547.718750 6739243.500000 -3006.990967 ;
428608.437500 6740646.500000 -2881.952881 ;
427939.843750 6740060.500000 -2966.061035 ;
428409.281250 6740088.000000 -2909.000000 ;
426762.437500 6742060.500000 -3038.335938 ;
427377.437500 6738271.500000 -3039.987061 ;
429429.125000 6739529.000000 -2799.474121 ;
426883.531250 6738869.500000 -3078.577881 ;
430584.375000 6736467.000000 -2723.519043 ;
429956.125000 6737818.000000 -2808.388916 ;
430104.468750 6744941.500000 -2762.289062 ;
426881.468750 6736969.000000 -3086.812988 ;
427070.750000 6736152.500000 -3083.041992 ;
426643.187500 6743538.000000 -2985.019043 ;
429436.437500 6734477.500000 -2864.245117 ;
426692.125000 6743187.000000 -3016.342041 ;
428774.343750 6735104.000000 -2908.617920 ;
427746.625000 6744290.500000 -2867.441895 ;
430123.531250 6738652.000000 -2768.866943 ;
430998.625000 6738346.000000 -2678.262939 ;
429659.531250 6741587.500000 -2706.427002 ;
425918.875000 6741177.500000 -3105.250000 ;
429316.375000 6744920.500000 -2810.613037 ;
429229.156250 6740733.500000 -2785.552002 ;
426070.125000 6744838.000000 -2986.842041 ;
427369.625000 6737896.500000 -3037.447021 ;
430107.343750 6743278.500000 -2802.031006 ;
429141.906250 6743749.000000 -2726.204102 ;
426135.500000 6741673.500000 -3107.507080 ;
427954.625000 6745274.000000 -2767.549072 ;
427286.812500 6742024.500000 -3010.479980 ;
427554.437500 6746770.000000 -2776.666016 ;
427763.281250 6746891.000000 -2754.456055 ;
426852.281250 6740970.500000 -3038.166992 ;
428211.937500 6735116.000000 -2982.497070 ;
427398.781250 6742897.500000 -2953.770020 ;
427210.031250 6738337.500000 -3059.742920 ;
427213.937500 6738525.000000 -3067.123047 ;
426264.343750 6747860.000000 -2955.367920 ;
428407.937500 6744527.000000 -2790.330078 ;
428733.437500 6736743.000000 -2922.562012 ;
426852.000000 6743659.000000 -2959.387939 ;
428401.437500 6743314.000000 -2857.059082 ;
429751.937500 6744223.500000 -2810.051025 ;
427399.062500 6740209.000000 -2999.376953 ;
430592.187500 6738642.000000 -2697.478027 ;
427159.468750 6747616.000000 -2825.547119 ;
430082.093750 6742966.500000 -2799.264893 ;
427397.250000 6736520.500000 -3032.856934 ;
430828.562500 6741888.000000 -2710.773926 ;
428134.562500 6744907.500000 -2783.523926 ;
429578.093750 6734975.000000 -2804.719971 ;
427888.781250 6742112.000000 -2929.781006 ;
427036.062500 6747093.500000 -2844.116943 ;
427255.843750 6743238.000000 -2951.210938 ;
428445.937500 6747251.500000 -2658.414062 ;
428551.187500 6736997.000000 -2947.383057 ;
428237.437500 6739941.500000 -2930.472900 ;
430278.687500 6739799.000000 -2701.617920 ;
426200.281250 6747486.000000 -2974.560059 ;
429752.781250 6736159.000000 -2788.470947 ;
427276.437500 6737023.500000 -3039.987061 ;
428981.812500 6737863.000000 -2887.531006 ;
426088.343750 6746613.000000 -2987.406982 ;
427595.625000 6741543.000000 -2963.800049 ;
427946.093750 6735859.000000 -3016.478027 ;
426657.281250 6737011.500000 -3105.539062 ;
428912.031250 6741715.500000 -2794.434082 ;
427539.406250 6736142.500000 -3065.251953 ;
428894.812500 6745392.000000 -2673.648926 ;
429567.125000 6737150.500000 -2838.271973 ;
430713.750000 6743578.500000 -2716.643066 ;
427533.625000 6743069.500000 -2925.137939 ;
428691.468750 6746434.000000 -2639.732910 ;
428404.531250 6747065.000000 -2668.354004 ;
427729.687500 6747079.000000 -2760.529053 ;
430817.656250 6738662.500000 -2673.479004 ;
426180.531250 6744735.500000 -2985.346924 ;
428931.281250 6742640.500000 -2775.715088 ;
428813.125000 6737866.500000 -2901.965088 ;
428381.937500 6737875.500000 -2941.709961 ;
430635.875000 6743442.500000 -2717.305908 ;
427384.468750 6737709.000000 -3032.722900 ;
427923.437500 6739273.000000 -2970.217041 ;
426238.312500 6746610.000000 -2973.697998 ;
426553.625000 6741039.500000 -3064.874023 ;
427735.187500 6739239.500000 -2990.840088 ;
428241.625000 6736540.500000 -2984.227051 ;
428165.031250 6744569.500000 -2823.080078 ;
427398.781250 6741097.000000 -2986.704102 ;
428943.781250 6743240.500000 -2766.616943 ;
426388.562500 6742118.000000 -3091.741943 ;
427620.625000 6738241.500000 -3014.829102 ;
427547.750000 6735642.500000 -3075.788086 ;
428902.656250 6741265.500000 -2787.410889 ;
429062.531250 6741737.500000 -2774.382080 ;
430600.531250 6735441.000000 -2711.206055 ;
429416.625000 6736228.500000 -2820.937988 ;
427190.218750 6744589.500000 -2866.252930 ;
426564.312500 6743352.500000 -2992.402100 ;
428721.718750 6736180.500000 -2939.246094 ;
428560.031250 6735621.500000 -2942.079102 ;
427877.593750 6742475.000000 -2910.687012 ;
429343.187500 6739906.000000 -2787.549072 ;
427709.125000 6743391.000000 -2903.614990 ;
430495.843750 6738519.000000 -2727.500000 ;
429837.125000 6738408.000000 -2807.258057 ;
430080.562500 6739290.500000 -2757.319092 ;
427726.875000 6738839.500000 -2999.000977 ;
428120.562500 6735230.500000 -2995.727051 ;
427387.343750 6740547.000000 -2991.905029 ;
427542.000000 6740769.000000 -2977.277100 ;
431672.156250 6739170.000000 -2740.694092 ;
428261.906250 6737515.500000 -2954.439941 ;
426536.218750 6735701.000000 -3156.037109 ;
426329.250000 6734767.500000 -3186.966064 ;
428388.937500 6741814.000000 -2869.108887 ;
430280.250000 6740774.500000 -2679.426025 ;
428596.968750 6744598.000000 -2759.749023 ;
426699.156250 6746225.500000 -2926.862061 ;
426084.437500 6746425.500000 -2990.405029 ;
430265.375000 6743663.000000 -2785.187988 ;
430599.968750 6741718.000000 -2748.774902 ;
427703.906250 6746742.000000 -2759.787109 ;
430430.250000 6736270.000000 -2735.646973 ;
427430.250000 6747110.500000 -2790.719971 ;
428054.406250 6734756.500000 -3016.352051 ;
427393.062500 6743522.500000 -2934.313965 ;
426867.093750 6745284.000000 -2897.318115 ;
430416.437500 6734707.500000 -2751.354004 ;
426576.250000 6746628.000000 -2926.727051 ;
430032.625000 6745993.500000 -2681.740967 ;
428727.968750 6734680.000000 -2933.370117 ;
427624.500000 6742930.000000 -2925.990967 ;
430795.750000 6743014.000000 -2703.625000 ;
427270.656250 6743950.500000 -2907.905029 ;
426851.531250 6735532.000000 -3132.517090 ;
427542.531250 6735392.500000 -3074.821045 ;
427711.500000 6738102.000000 -3007.382080 ;
426287.281250 6741757.500000 -3110.680908 ;
426865.062500 6735281.500000 -3143.360107 ;
426569.812500 6737313.000000 -3105.303955 ;
427001.187500 6742718.000000 -3011.138916 ;
431110.593750 6734718.000000 -2727.070068 ;
427413.343750 6746298.000000 -2816.450928 ;
429737.156250 6735409.000000 -2794.976074 ;
427515.968750 6739519.000000 -3008.754883 ;
428788.343750 6744781.500000 -2716.524902 ;
425850.937500 6736115.500000 -3159.437988 ;
429415.875000 6735291.000000 -2833.903076 ;
427164.437500 6745153.000000 -2866.633057 ;
431133.218750 6735805.000000 -2695.626953 ;
427348.781250 6745899.000000 -2841.082031 ;
426591.875000 6746477.500000 -2935.559082 ;
428233.750000 6746068.500000 -2711.584961 ;
428381.125000 6745940.000000 -2691.879883 ;
429983.406250 6743631.000000 -2789.422119 ;
427733.656250 6734663.000000 -3050.625977 ;
428053.875000 6736532.000000 -2978.066895 ;
426214.125000 6744547.500000 -2987.488037 ;
426185.718750 6744985.500000 -2984.666016 ;
428224.125000 6746506.000000 -2705.837891 ;
427907.250000 6745700.000000 -2759.404053 ;
427419.875000 6742109.000000 -3000.538086 ;
426548.125000 6747979.000000 -2920.353027 ;
427020.437500 6745443.500000 -2883.897949 ;
427567.218750 6745582.000000 -2815.613037 ;
428959.937500 6739514.000000 -2846.256104 ;
426513.562500 6736414.000000 -3120.746094 ;
426358.593750 6746982.500000 -2958.745117 ;
427700.781250 6743891.500000 -2888.995117 ;
427223.531250 6747089.500000 -2816.554932 ;
428395.437500 6746627.500000 -2668.540039 ;
429585.062500 6742514.000000 -2688.456055 ;
428782.093750 6742681.000000 -2808.852051 ;
429876.968750 6736719.000000 -2772.525879 ;
428211.906250 6737816.500000 -2954.798096 ;
427022.031250 6743718.000000 -2939.992920 ;
426204.718750 6746798.000000 -2970.110107 ;
426541.656250 6743165.500000 -3012.881104 ;
427040.031250 6737378.500000 -3065.341064 ;
428732.125000 6742082.000000 -2817.164062 ;
426530.718750 6744441.000000 -2949.719971 ;
427775.000000 6742952.000000 -2905.899902 ;
430792.875000 6745577.500000 -2719.614014 ;
430799.937500 6737812.500000 -2721.660889 ;
428089.500000 6745446.000000 -2736.175049 ;
429651.437500 6745701.000000 -2737.930908 ;
427086.843750 6744129.000000 -2936.924072 ;
427036.625000 6741717.000000 -3030.718018 ;
428357.406250 6747503.500000 -2658.360107 ;
427119.406250 6742090.500000 -3025.792969 ;
428566.562500 6735933.500000 -2927.399902 ;
430989.250000 6735195.500000 -2700.479004 ;
426411.250000 6735103.500000 -3169.556885 ;
426348.750000 6736605.000000 -3130.625000 ;
427208.187500 6745452.000000 -2863.613037 ;
427503.218750 6737106.000000 -3007.879883 ;
429768.656250 6737821.500000 -2823.664062 ;
428735.250000 6737730.500000 -2913.064941 ;
428798.750000 6745281.500000 -2690.489990 ;
430938.937500 6745387.000000 -2735.523926 ;
430444.531250 6743259.000000 -2750.601074 ;
430773.125000 6742827.000000 -2719.482910 ;
431278.218750 6744567.000000 -2708.702881 ;
429811.093750 6739859.000000 -2779.542969 ;
425893.375000 6734551.500000 -3207.547119 ;
427173.812500 6747403.000000 -2828.284912 ;
426438.031250 6739991.500000 -3083.864990 ;
426182.625000 6741234.500000 -3104.585938 ;
430448.468750 6734444.000000 -2751.899902 ;
427097.812500 6740153.000000 -3017.780029 ;
428120.750000 6746946.000000 -2717.031006 ;
428412.875000 6744764.000000 -2777.331055 ;
426866.625000 6737157.000000 -3087.854980 ;
428087.718750 6738157.000000 -2961.576904 ;
427896.875000 6740699.000000 -2936.601074 ;
430425.812500 6737858.000000 -2746.173096 ;
426869.218750 6738182.000000 -3082.654053 ;
427260.000000 6743438.000000 -2949.666992 ;
430845.000000 6735473.500000 -2688.613037 ;
426352.625000 6741293.500000 -3094.650879 ;
427226.437500 6737324.500000 -3040.556885 ;
430763.187500 6745953.000000 -2709.121094 ;
426392.968750 6743231.000000 -3027.477051 ;
430416.406250 6743709.500000 -2758.553955 ;
429058.375000 6739737.000000 -2830.741943 ;
427092.343750 6742591.000000 -3008.294922 ;
429237.750000 6742046.500000 -2746.113037 ;
427784.875000 6746127.500000 -2762.326904 ;
429101.593750 6737310.500000 -2894.221924 ;
429969.875000 6744782.000000 -2786.572998 ;
426880.906250 6743245.500000 -2995.916992 ;
429916.750000 6744032.500000 -2833.769043 ;
426701.031250 6736410.000000 -3112.527100 ;
426698.968750 6734510.000000 -3168.997070 ;
427919.750000 6743599.000000 -2875.344971 ;
427518.000000 6745020.500000 -2820.144043 ;
427990.343750 6737984.000000 -2977.178955 ;
428252.250000 6742454.500000 -2888.756104 ;
428556.375000 6741748.000000 -2856.148926 ;
426341.968750 6738981.000000 -3129.086914 ;
431033.500000 6735520.000000 -2715.090088 ;
427878.656250 6739824.000000 -2971.611084 ;
429784.281250 6738571.500000 -2811.791992 ;
429205.718750 6739609.000000 -2815.804932 ;
429741.593750 6734721.500000 -2838.665039 ;
428271.500000 6746980.000000 -2689.364014 ;
426491.687500 6738065.000000 -3118.719971 ;
430948.875000 6735959.000000 -2677.068115 ;
429800.625000 6745660.500000 -2744.452881 ;
426178.468750 6741035.000000 -3097.497070 ;
428047.375000 6739820.500000 -2954.004883 ;
427682.593750 6738515.500000 -3014.495117 ;
426537.468750 6744766.000000 -2945.672119 ;
429563.968750 6746003.000000 -2715.133057 ;
427044.437500 6740291.500000 -3020.302002 ;
429258.562500 6743046.000000 -2719.372070 ;
428239.000000 6740917.000000 -2885.127930 ;
429612.687500 6734836.500000 -2846.809082 ;
429259.625000 6740395.500000 -2800.809082 ;
426514.625000 6734663.500000 -3175.019043 ;
429901.156250 6739682.000000 -2776.531982 ;
427363.906250 6738522.000000 -3058.093994 ;
426212.312500 6738158.500000 -3129.204102 ;
426208.937500 6735295.000000 -3196.826904 ;
426710.875000 6746787.500000 -2902.591064 ;
426406.500000 6747481.500000 -2945.918945 ;
426363.312500 6743606.500000 -2988.771973 ;
427599.250000 6741718.000000 -2963.800049 ;
426515.093750 6742790.500000 -3041.465088 ;
429933.156250 6745720.500000 -2722.809082 ;
428749.312500 6739306.000000 -2889.669922 ;
427020.437500 6746343.500000 -2863.529053 ;
427179.531250 6746778.000000 -2827.156006 ;
426042.781250 6744426.000000 -3001.471924 ;
430778.875000 6736800.500000 -2696.595947 ;
425914.218750 6735551.500000 -3190.058105 ;
426642.437500 6738099.500000 -3101.583984 ;
429068.031250 6734798.000000 -2898.076904 ;
430428.375000 6742484.000000 -2755.830078 ;
427232.656250 6743026.000000 -2963.174072 ;
428537.875000 6743561.500000 -2820.447021 ;
431638.843750 6741171.000000 -2709.170898 ;
428046.312500 6742471.000000 -2898.681885 ;
430091.500000 6735314.500000 -2766.602051 ;
429119.781250 6742686.500000 -2736.882080 ;
429034.437500 6734986.000000 -2863.885010 ;
429237.500000 6740233.500000 -2809.447998 ;
430428.937500 6738008.000000 -2746.214111 ;
431130.125000 6735655.500000 -2701.270996 ;
430111.781250 6740790.500000 -2690.031006 ;
429994.625000 6744168.500000 -2816.968994 ;
427884.875000 6742824.500000 -2903.278076 ;
428384.812500 6739813.500000 -2915.956055 ;
429413.000000 6737854.000000 -2844.569092 ;
431489.125000 6741186.500000 -2698.120117 ;
426878.625000 6735031.000000 -3132.553955 ;
427777.875000 6740389.000000 -2944.107910 ;
431842.187500 6738328.500000 -2779.650879 ;
428449.375000 6737511.500000 -2941.257080 ;
428569.125000 6743260.500000 -2832.990967 ;
429404.375000 6741042.500000 -2766.538086 ;
428068.750000 6735444.000000 -3010.382080 ;
427211.843750 6741126.000000 -3007.601074 ;
429934.218750 6739468.500000 -2774.285889 ;
428927.125000 6744241.000000 -2725.468994 ;
426346.906250 6741919.000000 -3103.632080 ;
429493.437500 6735414.500000 -2817.085938 ;
426526.062500 6737914.000000 -3119.079102 ;
428935.218750 6738326.500000 -2894.385986 ;
427719.031250 6740265.000000 -2996.877930 ;
428118.156250 6744120.000000 -2847.448975 ;
426516.906250 6743778.500000 -2957.774902 ;
428554.000000 6747937.000000 -2676.951904 ;
429317.656250 6743182.500000 -2714.639893 ;
430083.125000 6745717.000000 -2703.402100 ;
429756.656250 6737247.000000 -2830.434082 ;
429908.187500 6740019.500000 -2766.229004 ;
428451.968750 6742137.500000 -2854.512939 ;
428922.687500 6742228.000000 -2787.167969 ;
426241.687500 6747672.500000 -2955.367920 ;
427713.312500 6740890.500000 -2947.746094 ;
430102.687500 6737652.000000 -2784.405029 ;
427346.187500 6741273.000000 -2997.977051 ;
429036.500000 6740487.500000 -2824.112061 ;
430083.687500 6735839.500000 -2766.971924 ;
426682.750000 6744537.500000 -2925.431885 ;
428552.968750 6745186.500000 -2724.581055 ;
427054.281250 6747968.500000 -2829.212891 ;
426537.750000 6742978.000000 -3034.724121 ;
429238.281250 6741171.000000 -2781.289062 ;
427361.531250 6744711.000000 -2843.586914 ;
429406.218750 6740230.000000 -2787.197998 ;
427411.812500 6741722.000000 -2987.198975 ;
427707.875000 6737927.000000 -3006.928955 ;
426347.437500 6741044.000000 -3093.840088 ;
430773.406250 6735637.500000 -2689.060059 ;
427193.875000 6740263.500000 -3006.919922 ;
426898.875000 6745908.500000 -2893.268066 ;
427716.718750 6737452.000000 -3001.260986 ;
429123.187500 6741048.500000 -2786.238037 ;
428735.000000 6738618.500000 -2911.965088 ;
428263.968750 6744817.500000 -2774.068115 ;
427715.937500 6736514.000000 -3005.847900 ;
426212.031250 6743547.000000 -3001.342041 ;
428722.218750 6739806.500000 -2864.947998 ;
428453.250000 6744000.500000 -2797.270020 ;
426186.781250 6743235.000000 -3028.552979 ;
426859.562500 6742221.000000 -3035.969971 ;
428566.031250 6738609.500000 -2926.282959 ;
426345.906250 6735567.500000 -3174.136963 ;
427373.562500 6738084.000000 -3041.040039 ;
429413.750000 6742393.000000 -2710.600098 ;
428386.125000 6735375.000000 -2960.156982 ;
430260.187500 6743413.000000 -2785.187988 ;
425950.125000 6738176.500000 -3131.518066 ;
427746.375000 6741577.500000 -2961.504883 ;
429884.781250 6737094.000000 -2826.827881 ;
428725.843750 6747183.500000 -2637.010986 ;
428278.843750 6738328.000000 -2946.027100 ;
428247.593750 6738628.500000 -2948.478027 ;
426730.937500 6742348.500000 -3043.368896 ;
428553.000000 6737984.500000 -2928.010986 ;
430169.312500 6743552.500000 -2795.489990 ;
427002.468750 6747281.500000 -2857.102051 ;
426009.781250 6734736.500000 -3209.135010 ;
427562.281250 6742644.000000 -2953.903076 ;
431201.406250 6743581.000000 -2683.872070 ;
426391.187500 6739542.500000 -3108.196045 ;
428562.625000 6738447.000000 -2926.936035 ;
426520.062500 6741227.500000 -3085.916992 ;
430758.281250 6738514.000000 -2683.662109 ;
430767.906250 6742577.000000 -2713.958984 ;
431118.906250 6735118.000000 -2721.884033 ;
427049.375000 6745030.000000 -2878.632080 ;
431782.843750 6738180.000000 -2767.851074 ;
428961.468750 6744990.500000 -2685.913086 ;
426342.531250 6735405.000000 -3179.810059 ;
428223.375000 6741067.000000 -2877.841064 ;
427373.812500 6735396.000000 -3087.733887 ;
426688.750000 6745725.500000 -2922.532959 ;
429914.718750 6735830.500000 -2791.090088 ;
427190.468750 6746402.500000 -2838.351074 ;
429063.031250 6740862.000000 -2799.311035 ;
428381.625000 6747765.500000 -2669.922119 ;
430338.312500 6742661.000000 -2767.471924 ;
429893.875000 6737531.500000 -2813.321045 ;
430259.687500 6737086.500000 -2753.242920 ;
427832.562500 6738512.000000 -2994.214111 ;
427382.375000 6745711.000000 -2842.572021 ;
429704.343750 6739236.000000 -2805.966064 ;
426683.343750 6734660.000000 -3165.440918 ;
428272.812500 6747943.000000 -2699.249023 ;
429755.625000 6738097.000000 -2815.072021 ;
427185.281250 6741651.500000 -3042.010010 ;
430313.843750 6740586.000000 -2672.222900 ;
429439.812500 6737341.000000 -2856.190918 ;
429263.781250 6738795.000000 -2848.384033 ;
427981.218750 6742947.500000 -2893.999023 ;
428893.562500 6735427.000000 -2902.387939 ;
427972.406250 6735321.000000 -3017.141113 ;
428889.125000 6736114.500000 -2887.842041 ;
428586.312500 6744085.500000 -2778.141113 ;
428600.625000 6744773.000000 -2763.854004 ;
427865.093750 6744575.500000 -2828.137939 ;
428754.750000 6745870.000000 -2645.129883 ;
428639.656250 6745747.000000 -2661.947998 ;
425984.250000 6736212.500000 -3161.547119 ;
426717.937500 6741723.500000 -3076.729004 ;
428220.781250 6735541.000000 -2989.216064 ;
428846.937500 6743092.000000 -2789.400879 ;
427393.843750 6739959.000000 -3026.383057 ;
431058.968750 6743946.500000 -2708.093994 ;
426869.187500 6746284.000000 -2895.324951 ;
427386.312500 6736896.000000 -3040.970947 ;
427569.312500 6746582.000000 -2778.804932 ;
429744.156250 6741148.000000 -2706.551025 ;
430445.093750 6736082.000000 -2728.325928 ;
429022.843750 6745946.000000 -2638.573486 ;
427887.250000 6737536.000000 -2990.403076 ;
427767.187500 6745278.000000 -2791.461914 ;
427068.375000 6743242.000000 -2959.479980 ;
427879.156250 6743450.000000 -2882.405029 ;
427048.093750 6735965.500000 -3102.977051 ;
427239.156250 6746939.000000 -2813.148926 ;
430494.000000 6743833.000000 -2737.810059 ;
430628.875000 6743105.000000 -2728.312988 ;
426526.812500 6744253.500000 -2944.632080 ;
430422.906250 6744022.000000 -2748.394043 ;
428047.875000 6743446.500000 -2876.196045 ;
427245.187500 6735523.500000 -3096.500000 ;
428429.843750 6741075.500000 -2853.851074 ;
429816.812500 6740134.000000 -2781.569092 ;
429404.375000 6742843.000000 -2701.125977 ;
428227.250000 6745756.000000 -2710.704102 ;
428594.406250 6735470.500000 -2938.968994 ;
429833.500000 6735532.000000 -2802.948975 ;
428906.312500 6738740.000000 -2896.309082 ;
429924.843750 6740819.000000 -2689.456055 ;
428553.531250 6735309.000000 -2937.395020 ;
426365.093750 6747295.000000 -2960.579102 ;
430876.250000 6736973.500000 -2677.564941 ;
430099.312500 6735689.000000 -2769.157959 ;
429228.625000 6741609.000000 -2750.639893 ;
426375.562500 6738792.500000 -3131.655029 ;
426875.718750 6738494.500000 -3087.278076 ;
431836.218750 6738041.000000 -2778.055908 ;
427666.187500 6741329.000000 -2953.058105 ;
428733.125000 6743932.500000 -2774.135010 ;
426872.343750 6738332.000000 -3084.218018 ;
429110.156250 6742224.000000 -2757.427002 ;
430125.625000 6735151.000000 -2770.638916 ;
428344.687500 6741490.000000 -2875.392090 ;
428087.406250 6747146.500000 -2724.931885 ;
430107.875000 6745104.000000 -2751.907959 ;
428224.437500 6734815.500000 -2996.730957 ;
430598.718750 6734453.500000 -2729.193115 ;
426034.750000 6738637.000000 -3136.865967 ;
428736.562500 6735992.500000 -2909.663086 ;
428412.375000 6740238.000000 -2903.812012 ;
425896.750000 6736514.500000 -3113.844971 ;
427037.156250 6736340.500000 -3089.370117 ;
430077.437500 6739140.500000 -2758.885010 ;
429953.000000 6737668.000000 -2807.969971 ;
428748.281250 6736555.000000 -2916.082031 ;
426734.312500 6743411.500000 -2979.760986 ;
428016.343750 6744635.000000 -2813.729004 ;
429976.937500 6735216.500000 -2779.510010 ;
428558.718750 6737359.500000 -2940.039062 ;
426187.593750 6736971.000000 -3133.311035 ;
429776.687500 6745411.000000 -2755.707031 ;
427531.812500 6747483.500000 -2791.084961 ;
427718.000000 6742015.500000 -2960.645996 ;
429417.406250 6737166.500000 -2855.757080 ;
426172.968750 6745273.500000 -2977.011963 ;
429581.437500 6737838.000000 -2837.031006 ;
428751.375000 6740306.000000 -2856.650879 ;
428533.437500 6746049.500000 -2661.490967 ;
426029.781250 6742901.000000 -3064.931885 ;
428904.468750 6744054.000000 -2744.353027 ;
427262.875000 6741775.000000 -3016.000977 ;
426030.843750 6737549.500000 -3153.428955 ;
430146.906250 6744278.000000 -2788.877930 ;
427715.875000 6747317.000000 -2764.771973 ;
431620.625000 6738496.000000 -2759.813965 ;
426561.218750 6735100.500000 -3155.544922 ;
427053.812500 6739841.000000 -3064.625977 ;
428691.500000 6741932.500000 -2826.471924 ;
426352.656250 6736792.500000 -3131.492920 ;
428278.281250 6747305.000000 -2687.141113 ;
426282.062500 6745108.500000 -2978.155029 ;
427879.437500 6737161.000000 -2990.740967 ;
428094.437500 6747484.000000 -2715.326904 ;
426018.625000 6737862.500000 -3152.733887 ;
427243.875000 6739962.500000 -3043.387939 ;
429399.687500 6741718.000000 -2722.386963 ;
430106.343750 6740528.000000 -2714.313965 ;
431123.812500 6745258.000000 -2728.020020 ;
427753.406250 6740114.000000 -2986.842041 ;
430761.687500 6735975.500000 -2692.792969 ;
426709.343750 6739511.000000 -3088.985107 ;
427919.531250 6739085.500000 -2968.468994 ;
429357.000000 6739668.000000 -2796.458984 ;
428914.125000 6737314.500000 -2913.842041 ;
427779.687500 6744077.000000 -2883.417969 ;
426934.031250 6741294.000000 -3038.277100 ;
428236.687500 6734502.500000 -3008.071045 ;
428202.562500 6734666.000000 -3001.772949 ;
429578.312500 6737688.000000 -2838.493896 ;
428573.062500 6734445.500000 -2961.004883 ;
428723.281250 6737156.000000 -2927.947021 ;
426722.125000 6735622.000000 -3139.694092 ;
426525.218750 6745979.000000 -2951.087891 ;
427042.843750 6744717.500000 -2880.750000 ;
427608.406250 6737654.000000 -3013.868896 ;
426007.156250 6739113.000000 -3144.268066 ;
426013.625000 6742126.000000 -3090.945068 ;
426852.531250 6742783.500000 -3020.751953 ;
427272.812500 6735048.000000 -3119.012939 ;
430460.687500 6741333.000000 -2778.650879 ;
426866.812500 6747972.000000 -2862.968994 ;
428415.531250 6740388.000000 -2900.656006 ;
428024.218750 6735107.500000 -3000.020996 ;
427814.843750 6741263.500000 -2939.580078 ;
428086.718750 6734506.000000 -3017.549072 ;
425995.406250 6743051.500000 -3054.377930 ;
428221.812500 6739192.000000 -2944.729980 ;
426344.343750 6736392.500000 -3092.245117 ;
428924.562500 6735113.500000 -2886.332031 ;
427035.593750 6738966.500000 -3071.059082 ;
427093.875000 6744466.500000 -2880.535889 ;
427368.312500 6742335.500000 -2995.706055 ;
427889.625000 6734947.500000 -3016.510010 ;
428155.656250 6741418.500000 -2887.949951 ;
428750.125000 6735742.500000 -2918.879883 ;
430462.000000 6736894.500000 -2724.679932 ;
426586.968750 6742639.000000 -3041.885010 ;
426099.281250 6746238.000000 -2995.470947 ;
426865.312500 6737994.500000 -3080.252930 ;
426682.500000 6747226.000000 -2905.156982 ;
430966.593750 6735008.500000 -2713.909912 ;
427529.250000 6738356.000000 -3024.239014 ;
427365.468750 6740397.500000 -3001.293945 ;
429169.281250 6740560.000000 -2816.156982 ;
428897.468750 6736514.500000 -2911.287109 ;
429270.312500 6739107.500000 -2839.628906 ;
429591.875000 6738338.000000 -2836.742920 ;
429570.531250 6736413.000000 -2803.168945 ;
426690.593750 6740411.500000 -3063.903076 ;
427576.093750 6740605.500000 -2963.800049 ;
430272.187500 6738586.500000 -2749.645996 ;
428556.343750 6747149.500000 -2644.062012 ;
427741.187500 6736826.000000 -2994.323975 ;
429908.187500 6738219.000000 -2800.602051 ;
428683.656250 6746059.000000 -2646.989990 ;
426054.281250 6739574.500000 -3130.719971 ;
427236.875000 6737824.500000 -3054.311035 ;
429932.406250 6741181.500000 -2681.204102 ;
427209.531250 6734711.500000 -3112.164062 ;
426346.875000 6744619.500000 -2976.218018 ;
426345.875000 6739168.500000 -3120.532959 ;
428663.125000 6737869.500000 -2915.934082 ;
427946.593750 6740385.500000 -2964.839111 ;
431105.125000 6734455.500000 -2726.783936 ;
427264.687500 6740962.000000 -2998.041992 ;
427021.531250 6736491.000000 -3081.573975 ;
427418.312500 6743834.500000 -2917.724121 ;
428461.593750 6742600.000000 -2852.854004 ;
428091.375000 6738331.500000 -2963.441895 ;
428405.125000 6737187.500000 -2954.490967 ;
431619.312500 6740234.000000 -2706.680908 ;
426686.687500 6740224.000000 -3067.342041 ;
429062.781250 6739049.000000 -2864.944092 ;
431056.031250 6743767.500000 -2706.159668 ;
